1.165560 -0.729514 2.021960
1.177280 -0.745872 2.051880
1.176790 -0.749290 2.061850
1.166780 -0.746361 2.054900
1.159220 -0.745140 2.051880
1.153600 -0.745140 2.052810
1.149450 -0.746117 2.055820
1.142370 -0.745140 2.053970
1.135780 -0.744407 2.052810
1.135290 -0.747826 2.062780
1.141390 -0.755638 2.084820
1.143590 -0.760765 2.099890
1.138460 -0.761254 2.101980
1.123330 -0.754906 2.084820
1.113070 -0.751976 2.076930
1.105500 -0.750511 2.073920
1.099890 -0.750755 2.074840
1.095000 -0.755150 2.087830
1.089390 -0.755150 2.088990
1.084510 -0.755882 2.090850
1.159220 -0.736595 2.009900
1.163120 -0.742454 2.026830
1.165560 -0.747581 2.041910
1.166050 -0.751488 2.052810
1.156040 -0.748558 2.045850
1.152130 -0.749779 2.049790
1.147980 -0.750755 2.052810
1.145300 -0.752708 2.058840
1.135530 -0.749779 2.051880
1.133820 -0.752708 2.060000
1.133820 -0.756371 2.070900
1.133340 -0.759789 2.080870
1.124550 -0.757836 2.075770
1.116490 -0.756127 2.071830
1.106230 -0.752953 2.063940
1.097200 -0.750511 2.057910
1.093300 -0.751732 2.061850
1.091100 -0.754173 2.068810
1.088900 -0.756615 2.075770
1.084020 -0.757103 2.077860
1.077430 -0.756615 2.076930
1.072540 -0.757103 2.078790
1.069610 -0.759056 2.084820
1.060820 -0.756615 2.078790
1.051790 -0.754418 2.072990
1.047880 -0.755638 2.076930
1.044950 -0.757591 2.082960
1.043000 -0.760277 2.090850
1.034210 -0.758080 2.084820
1.028350 -0.757836 2.084820
1.024450 -0.759301 2.088990
1.016630 -0.757591 2.084820
1.006380 -0.754173 2.075770
1.153110 -0.738060 1.999000
1.157020 -0.744163 2.015930
1.167030 -0.754173 2.044000
1.155310 -0.750267 2.033790
1.152870 -0.752220 2.039820
1.149200 -0.753441 2.044000
1.146520 -0.755394 2.049790
1.142120 -0.756371 2.052810
1.132850 -0.753929 2.046780
1.126500 -0.753197 2.045850
1.123080 -0.754906 2.050950
1.120400 -0.756859 2.056980
1.115760 -0.757347 2.058840
1.108190 -0.756127 2.055820
1.099890 -0.754418 2.051880
1.091340 -0.752220 2.046780
1.087680 -0.753441 2.050950
1.083770 -0.754906 2.054900
1.080600 -0.756371 2.060000
1.075230 -0.756615 2.060930
1.071320 -0.757836 2.064870
1.069120 -0.760277 2.071830
1.065220 -0.761498 2.075770
1.054720 -0.758080 2.066960
1.043730 -0.754173 2.056980
1.040070 -0.755638 2.060930
1.038120 -0.758324 2.068810
1.036900 -0.761498 2.077860
1.027380 -0.758812 2.070900
1.021030 -0.758080 2.069970
1.014680 -0.757591 2.068810
1.008820 -0.757591 2.068810
1.002230 -0.756615 2.066960
0.993439 -0.754173 2.060930
0.988556 -0.754906 2.062780
0.980010 -0.752464 2.056980
1.154090 -0.740745 1.989950
1.163120 -0.750023 2.015930
1.164100 -0.754173 2.027990
1.157020 -0.753197 2.025900
1.149940 -0.752220 2.023820
1.146280 -0.753441 2.027990
1.146030 -0.756859 2.037970
1.140660 -0.757103 2.038890
1.135290 -0.757103 2.039820
1.124790 -0.753929 2.031930
1.117710 -0.752953 2.029850
1.116250 -0.755882 2.037970
1.115760 -0.759301 2.047940
1.110870 -0.759789 2.049790
1.105500 -0.760033 2.050950
1.096960 -0.757836 2.045850
1.088900 -0.756127 2.041910
1.083040 -0.755882 2.041910
1.078400 -0.756615 2.044000
1.071810 -0.755882 2.042840
1.065950 -0.755638 2.042840
1.063750 -0.758080 2.049790
1.062040 -0.761010 2.057910
1.056180 -0.760765 2.057910
1.045690 -0.757103 2.048870
1.036410 -0.754418 2.041910
1.031530 -0.754906 2.044000
1.029330 -0.757347 2.050950
1.028600 -0.761010 2.060930
1.023220 -0.761254 2.061850
1.015410 -0.759545 2.057910
1.007110 -0.757591 2.052810
0.999786 -0.756371 2.049790
0.995880 -0.757591 2.053970
0.991729 -0.758568 2.056980
0.986358 -0.758812 2.057910
0.978545 -0.757103 2.053970
0.970000 -0.754906 2.047940
1.168740 -0.759056 2.024980
1.163850 -0.759545 2.026830
1.155550 -0.757836 2.022890
1.147500 -0.756127 2.018950
1.143830 -0.757347 2.022890
1.141640 -0.759789 2.029850
1.137000 -0.760277 2.031930
1.128210 -0.758080 2.026830
1.118930 -0.755638 2.020800
1.114780 -0.756615 2.023820
1.108190 -0.755882 2.022890
1.107460 -0.759056 2.031930
1.104280 -0.760765 2.036810
1.101600 -0.762719 2.042840
1.091830 -0.759789 2.035880
1.083770 -0.758080 2.031930
1.077910 -0.758080 2.031930
1.073760 -0.758812 2.034950
1.065710 -0.757103 2.030770
1.058380 -0.755882 2.027990
1.055210 -0.757591 2.032860
1.053500 -0.760277 2.040980
1.048130 -0.760521 2.041910
1.040310 -0.758812 2.037970
1.032010 -0.756859 2.032860
1.023710 -0.754662 2.027990
1.017850 -0.754662 2.027990
1.016630 -0.757836 2.036810
1.015410 -0.761010 2.045850
1.010530 -0.761498 2.047940
1.002720 -0.759789 2.044000
0.995636 -0.758568 2.040980
0.993194 -0.761010 2.047940
0.990265 -0.763207 2.053970
0.985626 -0.763695 2.055820
0.978301 -0.762474 2.052810
0.969756 -0.760033 2.046780
1.163120 -0.761254 2.014770
1.153840 -0.758568 2.008970
1.147250 -0.757836 2.007810
1.139190 -0.756127 2.003870
1.135040 -0.757103 2.006890
1.130650 -0.757836 2.009900
1.124300 -0.757347 2.008970
1.117950 -0.756615 2.007810
1.115760 -0.759056 2.014770
1.111610 -0.760033 2.017790
1.105260 -0.759301 2.016860
1.101600 -0.760521 2.020800
1.098420 -0.762230 2.025900
1.095250 -0.763939 2.030770
1.086700 -0.761742 2.025900
1.079870 -0.760765 2.023820
1.072300 -0.759545 2.020800
1.068150 -0.760521 2.023820
1.059600 -0.758324 2.018950
1.054480 -0.758568 2.019870
1.048620 -0.758324 2.019870
1.044470 -0.759301 2.022890
1.039580 -0.759789 2.024980
1.035430 -0.760765 2.027990
1.031280 -0.761742 2.030770
1.021760 -0.758812 2.023820
1.015660 -0.758324 2.022890
1.010280 -0.758568 2.023820
1.010040 -0.762474 2.034950
1.005890 -0.763451 2.037970
1.001500 -0.764428 2.040980
0.992218 -0.761742 2.033790
0.987579 -0.762230 2.035880
0.981231 -0.761742 2.034950
0.978545 -0.763939 2.040980
0.971709 -0.762963 2.038890
0.967071 -0.763451 2.040980
1.162630 -0.744896 1.952840
1.157020 -0.762719 2.003870
1.146520 -0.759301 1.995980
1.142370 -0.760277 1.999000
1.133090 -0.757591 1.992970
1.128940 -0.758568 1.995980
1.123080 -0.758324 1.995980
1.117220 -0.758080 1.995980
1.112580 -0.758568 1.997840
1.109410 -0.760277 2.002940
1.106480 -0.761742 2.007810
1.097200 -0.759301 2.001780
1.092070 -0.759545 2.002940
1.087920 -0.760277 2.005960
1.085240 -0.762474 2.011990
1.078400 -0.761498 2.009900
1.073030 -0.761742 2.010830
1.064730 -0.759545 2.005960
1.058380 -0.758812 2.004800
1.049840 -0.756859 1.999930
1.048370 -0.759545 2.007810
1.043240 -0.759789 2.008970
1.041050 -0.762230 2.015930
1.034210 -0.761254 2.013840
1.032500 -0.764183 2.021960
1.024200 -0.761986 2.016860
1.019560 -0.762719 2.018950
1.011750 -0.761010 2.014770
1.007600 -0.761986 2.017790
1.003200 -0.762963 2.020800
1.001010 -0.765404 2.027990
0.998810 -0.767846 2.034950
0.990020 -0.765404 2.028920
0.982452 -0.763695 2.024980
0.975616 -0.762963 2.022890
0.972930 -0.764916 2.028920
1.169230 -0.747826 1.943800
1.153600 -0.762230 1.986940
1.139440 -0.756371 1.972790
1.137000 -0.758568 1.978820
1.133090 -0.759301 1.981840
1.126500 -0.758812 1.980910
1.121860 -0.759301 1.983000
1.119420 -0.761254 1.988790
1.114780 -0.761742 1.990880
1.108920 -0.761498 1.990880
1.105260 -0.762719 1.994820
1.102820 -0.764916 2.000850
1.093050 -0.761986 1.993900
1.087190 -0.761742 1.993900
1.082550 -0.762230 1.995980
1.078890 -0.763451 1.999930
1.072050 -0.762474 1.997840
1.066930 -0.762719 1.999000
1.062290 -0.763207 2.000850
1.054230 -0.761498 1.996910
1.043240 -0.757591 1.986940
1.041780 -0.760277 1.994820
1.036650 -0.760521 1.995980
1.034940 -0.763451 2.003870
1.026150 -0.760765 1.997840
1.023960 -0.763451 2.004800
1.017850 -0.762719 2.003870
1.014680 -0.764428 2.008970
1.010530 -0.765404 2.011990
1.006130 -0.766381 2.014770
0.999542 -0.765404 2.012920
0.995636 -0.766869 2.016860
0.991485 -0.767846 2.019870
0.983917 -0.766137 2.015930
0.976592 -0.764916 2.012920
1.149690 -0.761498 1.969770
1.142120 -0.760033 1.966990
1.132850 -0.757347 1.960960
1.128700 -0.758324 1.963980
1.126500 -0.760277 1.969770
1.121620 -0.760765 1.971860
1.119910 -0.763207 1.978820
1.119170 -0.766625 1.987870
1.117220 -0.768822 1.994820
1.111850 -0.769066 1.995980
1.102330 -0.766137 1.988790
1.096470 -0.765893 1.988790
1.087920 -0.763695 1.983920
1.081090 -0.762719 1.981840
1.077910 -0.764428 1.986940
1.071570 -0.763695 1.985780
1.066440 -0.763939 1.986940
1.061800 -0.764428 1.988790
1.059850 -0.766869 1.995980
1.052280 -0.765648 1.992970
1.041290 -0.761498 1.983000
1.037870 -0.762963 1.986940
1.034210 -0.764183 1.990880
1.033230 -0.767357 1.999930
1.021760 -0.762963 1.988790
1.016140 -0.762719 1.988790
1.008330 -0.761010 1.984850
1.008820 -0.765648 1.996910
1.003450 -0.765648 1.997840
1.001980 -0.768578 2.005960
0.995148 -0.767602 2.003870
0.991974 -0.769311 2.008970
0.984405 -0.767602 2.004800
0.978057 -0.767113 2.003870
0.969512 -0.764672 1.997840
1.161660 -0.760521 1.949830
1.157750 -0.761498 1.952840
1.155310 -0.763451 1.958870
1.150670 -0.763939 1.960960
1.141390 -0.761254 1.954930
1.133820 -0.759789 1.951920
1.129180 -0.760277 1.953770
1.121620 -0.758812 1.950990
1.119170 -0.761010 1.956790
1.117470 -0.763451 1.963980
1.114540 -0.764916 1.968850
1.114780 -0.769066 1.979980
1.110630 -0.770043 1.983000
1.108920 -0.772485 1.989950
1.099640 -0.769799 1.983920
1.091590 -0.768090 1.979980
1.082060 -0.765160 1.972790
1.078400 -0.766381 1.976960
1.072790 -0.766137 1.976960
1.068150 -0.766625 1.978820
1.063510 -0.767113 1.980910
1.060820 -0.769311 1.986940
1.059850 -0.772485 1.995980
1.053250 -0.771508 1.993900
1.041540 -0.767113 1.983000
1.034460 -0.765648 1.979980
1.030790 -0.767113 1.983920
1.025670 -0.767357 1.984850
1.014680 -0.763207 1.974880
1.007600 -0.761742 1.971860
1.003940 -0.763207 1.975800
1.003450 -0.766869 1.985780
0.998321 -0.767113 1.986940
0.995148 -0.768822 1.991810
0.989288 -0.768578 1.991810
0.984161 -0.768822 1.992970
0.976104 -0.766869 1.987870
0.969512 -0.765893 1.985780
0.961455 -0.763695 1.980910
0.955351 -0.763207 1.979980
0.949736 -0.762963 1.979980
0.946562 -0.764916 1.984850
1.153840 -0.764183 1.945880
1.154330 -0.768334 1.956790
1.147500 -0.767113 1.954930
1.137970 -0.764428 1.948900
1.126500 -0.760277 1.938930
1.126500 -0.763939 1.948900
1.125770 -0.767113 1.957950
1.121860 -0.768090 1.960960
1.113800 -0.766137 1.956790
1.111360 -0.768334 1.962820
1.107210 -0.769066 1.965830
1.102570 -0.769799 1.967920
1.101350 -0.772485 1.975800
1.093780 -0.771020 1.972790
1.085240 -0.768822 1.967920
1.075230 -0.765648 1.959800
1.071570 -0.766869 1.963980
1.066440 -0.767113 1.964900
1.062290 -0.767846 1.967920
1.060340 -0.770531 1.974880
1.055700 -0.771020 1.976960
1.054230 -0.773949 1.984850
1.045440 -0.771264 1.978820
1.037140 -0.769066 1.973950
1.029330 -0.767357 1.969770
1.025670 -0.768822 1.973950
1.018590 -0.767357 1.970930
1.010770 -0.765648 1.966990
1.003200 -0.763939 1.962820
1.002230 -0.767113 1.971860
0.997589 -0.767846 1.973950
0.990753 -0.766869 1.971860
0.986847 -0.767846 1.974880
0.981719 -0.768090 1.975800
0.978057 -0.769311 1.979980
0.970977 -0.768090 1.976960
0.965850 -0.768334 1.977890
0.956816 -0.765404 1.970930
0.950713 -0.764916 1.969770
0.943632 -0.763451 1.966990
1.140660 -0.768090 1.942870
1.132600 -0.766137 1.938930
1.120880 -0.761986 1.928950
1.120880 -0.765404 1.938930
1.122840 -0.770287 1.951920
1.119910 -0.771996 1.956790
1.114050 -0.771752 1.956790
1.107210 -0.770775 1.954930
1.100860 -0.770043 1.953770
1.092810 -0.768090 1.949830
1.090850 -0.770775 1.956790
1.085730 -0.770775 1.957950
1.080600 -0.771020 1.958870
1.068880 -0.766381 1.947970
1.064240 -0.766869 1.949830
1.062290 -0.769311 1.956790
1.060580 -0.771996 1.963980
1.056430 -0.772973 1.966990
1.049590 -0.771752 1.964900
1.041290 -0.769799 1.959800
1.032990 -0.767602 1.954930
1.027860 -0.767602 1.955860
1.022250 -0.767357 1.955860
1.019320 -0.769311 1.960960
1.011020 -0.767113 1.955860
1.007350 -0.768334 1.959800
1.000270 -0.767113 1.956790
0.996612 -0.768334 1.960960
0.989532 -0.767113 1.957950
0.987091 -0.769311 1.963980
0.981964 -0.769311 1.964900
0.975860 -0.768822 1.963980
0.969268 -0.767846 1.961890
0.965606 -0.769311 1.965830
0.960479 -0.769555 1.966990
0.953154 -0.767846 1.962820
0.946074 -0.766381 1.959800
0.939970 -0.765893 1.958870
0.936796 -0.767602 1.963980
0.931425 -0.767602 1.963980
0.929716 -0.770531 1.971860
0.880398 -0.760521 1.948900
1.126260 -0.763695 1.917820
1.124060 -0.765648 1.923850
1.116000 -0.763695 1.919910
1.116730 -0.767846 1.930810
1.116000 -0.771264 1.939850
1.115020 -0.773949 1.947970
1.109160 -0.773705 1.947970
1.101110 -0.771996 1.943800
1.093780 -0.770531 1.940780
1.085730 -0.768578 1.936840
1.083530 -0.770775 1.942870
1.077180 -0.770043 1.941940
1.067660 -0.767113 1.934980
1.051550 -0.759301 1.915960
1.044950 -0.758080 1.913880
1.049590 -0.765404 1.932900
1.052770 -0.775658 1.959800
1.039580 -0.769799 1.945880
1.032010 -0.768090 1.941940
1.023220 -0.765404 1.935910
1.021270 -0.768090 1.942870
1.018830 -0.770287 1.948900
1.014190 -0.770775 1.950990
1.007110 -0.769311 1.947970
1.005160 -0.771996 1.954930
0.998321 -0.771020 1.952840
0.989288 -0.768090 1.945880
0.983184 -0.767357 1.944960
0.980255 -0.769066 1.949830
0.976592 -0.770531 1.953770
0.968047 -0.768090 1.947970
0.964141 -0.769066 1.950990
0.960479 -0.770531 1.954930
0.956328 -0.771508 1.957950
0.948271 -0.769311 1.952840
0.942412 -0.768822 1.951920
0.935820 -0.767846 1.949830
0.932401 -0.769311 1.953770
0.927274 -0.769311 1.954930
0.923612 -0.770775 1.958870
0.917264 -0.769799 1.956790
0.905789 -0.769311 1.955860
0.901151 -0.769799 1.957950
0.895779 -0.769799 1.957950
0.886990 -0.766869 1.950990
0.880154 -0.765648 1.947970
1.111120 -0.765648 1.910860
1.111120 -0.769311 1.920840
1.110630 -0.772729 1.929880
1.107210 -0.773949 1.933820
1.102570 -0.774438 1.935910
1.091830 -0.774438 1.936840
1.085480 -0.773705 1.935910
1.077670 -0.771752 1.931970
1.066930 -0.767846 1.922920
1.043000 -0.754418 1.889990
1.021520 -0.742698 1.860990
1.047150 -0.776879 1.948900
1.036650 -0.772973 1.939850
1.026400 -0.769311 1.930810
1.017120 -0.766137 1.923850
1.012970 -0.767113 1.926870
1.010530 -0.769311 1.932900
1.006620 -0.770287 1.935910
1.001500 -0.770531 1.936840
0.999542 -0.772973 1.943800
0.989532 -0.769311 1.934980
0.980743 -0.766625 1.928950
0.974883 -0.766137 1.927790
0.976836 -0.771752 1.942870
0.971221 -0.771752 1.942870
0.964385 -0.770287 1.939850
0.956816 -0.768578 1.935910
0.952666 -0.769555 1.938930
0.949248 -0.771020 1.942870
0.942167 -0.769555 1.939850
0.935820 -0.768578 1.938000
0.930204 -0.768578 1.938000
0.927274 -0.770287 1.942870
0.923124 -0.771264 1.945880
0.918485 -0.771996 1.947970
0.913602 -0.772240 1.948900
0.907254 -0.771264 1.946810
0.901151 -0.770775 1.945880
0.894803 -0.769799 1.943800
0.889920 -0.770043 1.944960
0.881619 -0.767602 1.938930
0.875759 -0.766869 1.938000
1.109160 -0.773217 1.916890
1.100620 -0.774682 1.921990
1.092560 -0.772729 1.917820
1.088170 -0.773217 1.919910
1.089880 -0.778344 1.932900
1.086210 -0.779565 1.936840
1.078400 -0.777612 1.932900
1.065950 -0.772729 1.920840
1.028350 -0.760277 1.892770
1.026640 -0.762963 1.899960
1.040560 -0.777123 1.935910
1.033720 -0.776147 1.933820
1.024930 -0.773461 1.927790
1.012970 -0.768334 1.915960
1.006380 -0.767357 1.913880
1.001980 -0.767846 1.915960
0.996368 -0.767846 1.915960
0.993927 -0.770043 1.921990
0.990020 -0.771020 1.924780
0.982452 -0.769066 1.920840
0.973418 -0.766137 1.913880
0.968535 -0.766381 1.914800
0.967559 -0.769799 1.923850
0.965606 -0.772240 1.930810
0.959502 -0.771752 1.929880
0.952422 -0.770287 1.926870
0.944609 -0.768090 1.921990
0.940703 -0.769311 1.924780
0.937529 -0.771020 1.929880
0.932646 -0.771264 1.930810
0.926054 -0.770287 1.928950
0.920194 -0.769799 1.927790
0.916288 -0.770775 1.930810
0.911161 -0.771020 1.931970
0.907743 -0.772485 1.935910
0.901639 -0.771996 1.934980
0.895779 -0.771264 1.933820
0.890408 -0.771264 1.933820
0.885769 -0.771752 1.935910
0.878201 -0.769799 1.930810
0.871364 -0.768334 1.927790
0.863796 -0.766381 1.922920
1.096220 -0.773217 1.903900
1.090610 -0.772973 1.903900
1.084510 -0.772240 1.902980
1.083770 -0.779321 1.921990
1.087190 -0.785424 1.938000
1.026400 -0.767846 1.898800
1.026640 -0.771996 1.909930
1.022250 -0.772729 1.911790
1.015170 -0.771264 1.908770
1.005400 -0.767846 1.900890
0.996612 -0.765160 1.894860
0.992218 -0.765648 1.896940
0.988800 -0.767113 1.900890
0.989044 -0.771264 1.911790
0.984161 -0.771508 1.912950
0.975616 -0.768822 1.906920
0.967071 -0.766381 1.900890
0.960967 -0.765648 1.899960
0.960723 -0.769555 1.909930
0.957793 -0.771264 1.914800
0.956816 -0.774682 1.923850
0.947295 -0.771264 1.915960
0.940214 -0.770043 1.912950
0.935820 -0.770531 1.914800
0.932890 -0.772485 1.919910
0.927519 -0.772240 1.919910
0.920438 -0.770775 1.916890
0.915555 -0.771020 1.917820
0.910672 -0.771264 1.918980
0.906766 -0.772485 1.921990
0.901151 -0.772240 1.921990
0.896268 -0.772485 1.922920
0.889431 -0.771020 1.919910
0.886013 -0.772485 1.923850
0.881375 -0.773217 1.925940
0.875515 -0.772729 1.924780
0.866482 -0.769311 1.916890
0.858913 -0.767113 1.911790
1.080840 -0.778588 1.905990
1.013700 -0.759789 1.864940
1.014190 -0.763939 1.875840
1.008090 -0.763207 1.874910
1.008090 -0.767113 1.884880
1.007350 -0.770531 1.893930
1.001740 -0.770287 1.893930
0.994171 -0.768334 1.889990
0.990265 -0.769555 1.892770
0.988067 -0.771752 1.898800
0.987091 -0.775170 1.907850
0.979034 -0.772729 1.902980
0.973662 -0.772729 1.902980
0.965606 -0.770287 1.897870
0.959258 -0.769311 1.895790
0.953398 -0.768822 1.894860
0.951445 -0.771508 1.901820
0.948027 -0.772973 1.905990
0.943876 -0.773949 1.908770
0.938017 -0.773217 1.907850
0.931669 -0.772240 1.905990
0.926786 -0.772485 1.906920
0.921903 -0.772729 1.907850
0.916288 -0.772485 1.907850
0.908963 -0.770775 1.903900
0.901395 -0.768578 1.898800
0.897000 -0.769311 1.900890
0.892117 -0.769555 1.901820
0.889431 -0.771752 1.907850
0.882595 -0.770531 1.904830
0.880154 -0.772729 1.910860
0.876492 -0.774194 1.914800
0.870632 -0.773705 1.913880
0.863063 -0.771508 1.908770
0.855983 -0.769799 1.904830
1.019320 -0.765160 1.864940
1.016630 -0.767113 1.869810
1.008330 -0.764672 1.864940
1.001500 -0.763207 1.861920
1.002470 -0.767846 1.873980
1.002720 -0.772240 1.884880
0.998810 -0.773217 1.887900
0.989776 -0.770043 1.880940
0.986847 -0.771996 1.885810
0.982452 -0.772485 1.887900
0.980255 -0.774682 1.893930
0.972686 -0.772973 1.889990
0.972442 -0.776879 1.899960
0.966338 -0.776147 1.898800
0.960479 -0.775658 1.897870
0.954375 -0.774926 1.896940
0.949492 -0.775170 1.897870
0.946074 -0.776635 1.901820
0.941679 -0.777123 1.903900
0.936796 -0.777367 1.904830
0.928495 -0.774682 1.898800
0.919706 -0.771752 1.891840
0.913846 -0.771264 1.890910
0.909452 -0.771752 1.892770
0.903592 -0.771264 1.891840
0.894803 -0.768334 1.884880
0.888211 -0.766869 1.881870
0.883816 -0.767602 1.883960
0.881619 -0.770287 1.890910
0.876736 -0.770531 1.891840
0.873806 -0.772240 1.896940
0.870632 -0.774194 1.901820
0.865505 -0.773949 1.901820
0.859157 -0.773217 1.899960
0.851588 -0.771020 1.894860
1.023470 -0.769555 1.861920
1.022250 -0.772729 1.869810
1.017360 -0.772729 1.870970
1.004910 -0.767113 1.857980
0.998321 -0.766137 1.855890
0.997345 -0.769066 1.863780
0.998321 -0.773949 1.875840
0.992218 -0.773217 1.874910
0.989044 -0.774682 1.878850
0.982940 -0.773949 1.877930
0.976592 -0.772973 1.875840
0.972686 -0.773949 1.878850
0.970244 -0.776147 1.884880
0.970000 -0.780053 1.894860
0.965117 -0.780297 1.895790
0.959014 -0.779565 1.894860
0.951689 -0.777856 1.890910
0.946318 -0.777612 1.890910
0.939970 -0.776635 1.888830
0.935575 -0.777123 1.890910
0.926542 -0.774194 1.883960
0.921171 -0.773949 1.883960
0.914335 -0.772485 1.880940
0.908719 -0.771996 1.879780
0.902371 -0.771020 1.877930
0.897488 -0.771264 1.878850
0.891140 -0.770287 1.877000
0.885037 -0.769311 1.874910
0.880642 -0.769799 1.877000
0.878201 -0.772240 1.882800
0.874538 -0.773705 1.886970
0.869900 -0.773949 1.887900
0.865017 -0.774194 1.888830
0.852565 -0.772240 1.884880
1.023710 -0.771020 1.851950
1.016630 -0.769555 1.848930
1.019810 -0.775903 1.864940
1.015410 -0.776391 1.866790
1.004670 -0.771996 1.856820
0.993683 -0.767602 1.846850
0.994903 -0.772485 1.858910
0.993683 -0.775414 1.866790
0.988311 -0.775170 1.866790
0.982940 -0.774926 1.866790
0.975860 -0.773461 1.863780
0.967315 -0.770775 1.857980
0.964629 -0.772729 1.862850
0.963408 -0.775658 1.870970
0.963164 -0.779565 1.880940
0.955596 -0.777856 1.877000
0.953154 -0.780053 1.882800
0.947783 -0.779809 1.882800
0.940947 -0.778344 1.879780
0.934599 -0.777367 1.877930
0.926786 -0.775170 1.872820
0.917997 -0.771996 1.865860
0.914090 -0.772973 1.868880
0.910184 -0.774194 1.871900
0.905301 -0.774438 1.872820
0.898709 -0.772973 1.869810
0.895779 -0.774926 1.874910
0.889920 -0.774194 1.873980
0.883816 -0.773217 1.871900
0.876003 -0.771020 1.866790
0.870876 -0.770775 1.866790
0.867946 -0.772729 1.871900
0.863552 -0.773461 1.873980
0.859645 -0.774438 1.877000
0.850612 -0.771020 1.868880
0.847682 -0.772973 1.873980
1.025420 -0.769799 1.834780
1.016630 -0.770775 1.838960
1.013950 -0.772729 1.843830
1.012970 -0.775658 1.851950
1.012970 -0.779565 1.861920
0.998810 -0.772729 1.845920
0.992462 -0.771508 1.843830
0.989776 -0.773461 1.848930
0.989044 -0.776879 1.857980
0.982696 -0.775903 1.855890
0.977813 -0.776147 1.856820
0.971954 -0.775414 1.855890
0.965606 -0.774438 1.853800
0.961211 -0.774926 1.855890
0.956328 -0.775170 1.856820
0.950468 -0.774438 1.855890
0.945585 -0.774682 1.856820
0.942412 -0.776147 1.860990
0.936552 -0.775658 1.859830
0.935575 -0.779077 1.868880
0.928739 -0.777612 1.865860
0.922880 -0.777123 1.864940
0.913114 -0.773217 1.855890
0.911893 -0.776147 1.863780
0.907987 -0.777367 1.866790
0.902615 -0.777123 1.866790
0.896512 -0.776147 1.864940
0.893094 -0.777612 1.868880
0.887234 -0.777123 1.867950
0.880642 -0.775658 1.864940
0.870144 -0.770775 1.853800
0.865261 -0.771020 1.854960
0.862331 -0.772973 1.859830
0.859890 -0.775414 1.865860
0.855739 -0.776147 1.867950
0.847194 -0.772973 1.860990
0.843776 -0.774438 1.864940
0.835475 -0.771508 1.857980
1.013700 -0.762230 1.803940
1.014190 -0.773949 1.833860
1.009800 -0.774682 1.835940
1.007840 -0.776879 1.841980
1.003450 -0.777367 1.843830
0.998566 -0.777612 1.844990
0.990997 -0.775658 1.840820
0.987335 -0.776635 1.843830
0.984161 -0.778100 1.847770
0.976104 -0.775658 1.842900
0.967071 -0.772485 1.835940
0.960723 -0.771508 1.833860
0.957305 -0.772973 1.837800
0.955107 -0.775170 1.843830
0.949248 -0.774438 1.842900
0.944121 -0.774438 1.842900
0.938261 -0.773705 1.841980
0.935331 -0.775658 1.846850
0.928739 -0.774194 1.843830
0.928739 -0.778588 1.854960
0.926054 -0.780297 1.859830
0.921659 -0.781030 1.861920
0.912381 -0.777612 1.853800
0.906278 -0.776391 1.851950
0.901395 -0.776635 1.852880
0.897000 -0.777367 1.854960
0.892361 -0.777612 1.855890
0.888943 -0.779077 1.859830
0.881375 -0.776879 1.854960
0.874050 -0.774926 1.850790
0.864772 -0.771020 1.841980
0.859401 -0.770775 1.841980
0.855251 -0.771508 1.843830
0.853298 -0.774194 1.850790
0.850368 -0.776147 1.855890
0.844264 -0.775170 1.853800
0.840358 -0.776391 1.856820
0.833766 -0.774926 1.853800
1.015410 -0.764672 1.796980
1.016140 -0.769066 1.807880
1.012480 -0.770043 1.810900
1.010040 -0.775903 1.825970
1.008580 -0.778588 1.832930
1.004180 -0.779077 1.834780
1.001010 -0.780541 1.838960
0.995636 -0.780297 1.838960
0.990753 -0.780541 1.839890
0.987091 -0.781518 1.842900
0.979522 -0.779565 1.838960
0.970977 -0.776635 1.832930
0.961943 -0.773461 1.825970
0.955596 -0.772485 1.823880
0.949736 -0.771752 1.822960
0.948271 -0.774438 1.829910
0.942900 -0.774194 1.829910
0.937040 -0.773705 1.828990
0.927274 -0.769555 1.819940
0.925565 -0.772240 1.826900
0.922391 -0.773949 1.830840
0.922636 -0.778344 1.841980
0.913846 -0.775170 1.834780
0.914090 -0.779565 1.845920
0.907743 -0.778588 1.843830
0.902860 -0.778832 1.844990
0.897244 -0.778100 1.843830
0.891385 -0.777612 1.842900
0.887234 -0.778100 1.844990
0.879177 -0.775414 1.838960
0.872341 -0.773949 1.835940
0.866237 -0.772973 1.833860
0.862575 -0.774194 1.836870
0.859157 -0.775658 1.840820
0.854762 -0.776391 1.842900
0.849635 -0.776147 1.842900
0.843532 -0.775170 1.840820
0.835719 -0.772485 1.834780
0.829615 -0.771508 1.832930
1.021520 -0.770531 1.797910
1.020780 -0.773705 1.805790
1.021030 -0.777612 1.816000
1.017850 -0.779077 1.819940
1.008090 -0.779321 1.821800
1.004910 -0.780786 1.825970
1.003450 -0.783471 1.832930
0.997589 -0.782739 1.831770
0.990509 -0.781274 1.828990
0.982940 -0.779321 1.824810
0.980255 -0.781274 1.829910
0.976592 -0.782250 1.832930
0.966582 -0.778100 1.823880
0.959014 -0.776147 1.819940
0.952178 -0.774682 1.816930
0.946318 -0.773949 1.816000
0.942656 -0.774926 1.818780
0.940947 -0.777856 1.825970
0.934843 -0.776635 1.823880
0.924833 -0.772729 1.814840
0.920682 -0.773217 1.816930
0.917508 -0.774682 1.820870
0.913846 -0.775903 1.823880
0.907987 -0.775170 1.822960
0.901395 -0.773705 1.819940
0.898953 -0.776147 1.825970
0.892361 -0.774682 1.822960
0.886746 -0.773949 1.821800
0.884304 -0.776391 1.827830
0.881130 -0.777856 1.831770
0.873562 -0.775658 1.826900
0.864528 -0.771996 1.818780
0.860866 -0.772973 1.821800
0.858425 -0.775414 1.827830
0.853786 -0.775658 1.828990
0.848903 -0.775903 1.829910
0.843776 -0.775903 1.829910
0.835963 -0.772973 1.823880
1.021030 -0.771264 1.786770
1.018340 -0.773217 1.791880
1.023220 -0.780541 1.809970
1.021760 -0.783471 1.816930
1.018590 -0.784692 1.820870
1.014440 -0.785424 1.822960
1.007840 -0.784204 1.820870
1.002960 -0.784448 1.821800
0.983673 -0.781030 1.816000
0.973662 -0.776879 1.806950
0.968780 -0.776879 1.807880
0.968291 -0.780541 1.816930
0.961455 -0.779077 1.813910
0.958770 -0.781030 1.818780
0.951933 -0.779321 1.816000
0.945585 -0.778344 1.813910
0.937284 -0.775414 1.807880
0.935087 -0.777856 1.813910
0.929716 -0.777612 1.813910
0.925565 -0.778344 1.816000
0.919462 -0.777123 1.813910
0.915555 -0.778100 1.816930
0.909452 -0.777123 1.814840
0.904324 -0.776879 1.814840
0.895047 -0.773217 1.806950
0.891873 -0.774926 1.810900
0.883816 -0.771996 1.804860
0.882107 -0.774926 1.811820
0.877224 -0.775170 1.812980
0.876980 -0.779077 1.822960
0.869900 -0.777367 1.818780
0.862331 -0.774926 1.813910
0.858180 -0.775658 1.816000
0.856716 -0.778832 1.823880
0.851100 -0.778344 1.822960
0.846461 -0.778588 1.823880
0.837672 -0.774926 1.816000
1.018830 -0.774682 1.782830
1.018830 -0.778344 1.791880
1.015660 -0.779809 1.795820
1.016390 -0.784204 1.806950
1.013950 -0.786157 1.811820
1.010770 -0.787622 1.816000
1.005400 -0.787378 1.816000
0.985626 -0.783471 1.808810
0.974151 -0.778344 1.797910
0.967803 -0.777123 1.795820
0.964873 -0.778588 1.799990
0.962188 -0.780541 1.804860
0.956328 -0.779809 1.803940
0.952178 -0.780541 1.805790
0.946318 -0.779809 1.804860
0.939482 -0.778344 1.801850
0.933378 -0.777123 1.799990
0.926542 -0.775658 1.796980
0.924833 -0.778344 1.803940
0.923368 -0.781274 1.810900
0.921171 -0.783471 1.816930
0.912870 -0.780786 1.810900
0.905545 -0.778832 1.806950
0.900418 -0.778588 1.806950
0.892850 -0.776147 1.801850
0.888699 -0.776879 1.803940
0.880886 -0.774682 1.798830
0.878689 -0.776879 1.804860
0.875027 -0.778100 1.807880
0.874294 -0.781762 1.816930
0.866726 -0.779321 1.811820
0.859157 -0.777123 1.806950
0.855495 -0.778100 1.809970
0.851833 -0.779321 1.812980
0.845729 -0.778344 1.810900
0.838160 -0.775903 1.805790
0.827662 -0.770531 1.793960
1.021520 -0.781762 1.786770
1.008330 -0.775170 1.772860
1.004670 -0.776147 1.775870
1.002230 -0.778100 1.780970
1.005160 -0.784448 1.795820
1.002720 -0.786157 1.800920
0.994171 -0.783227 1.794890
0.989776 -0.783959 1.796980
0.983428 -0.782739 1.794890
0.978057 -0.782495 1.794890
0.968535 -0.778588 1.786770
0.964385 -0.779321 1.788860
0.960723 -0.780297 1.791880
0.959258 -0.783227 1.798830
0.952910 -0.782006 1.796980
0.949248 -0.782983 1.799990
0.944121 -0.782739 1.799990
0.936796 -0.780786 1.795820
0.927274 -0.777123 1.787930
0.919950 -0.775170 1.783990
0.915311 -0.775414 1.784920
0.915799 -0.779809 1.795820
0.915311 -0.783471 1.804860
0.912137 -0.785180 1.808810
0.903836 -0.782250 1.802780
0.896756 -0.780297 1.798830
0.889920 -0.778832 1.795820
0.886258 -0.779809 1.798830
0.878201 -0.777123 1.792800
0.878933 -0.782006 1.804860
0.872341 -0.780541 1.801850
0.870632 -0.783471 1.808810
0.862087 -0.780297 1.801850
0.854030 -0.777367 1.795820
0.846706 -0.775170 1.790950
0.845241 -0.778344 1.798830
0.840602 -0.778588 1.799990
0.835719 -0.778344 1.799990
1.012730 -0.779809 1.770770
1.003940 -0.776879 1.764970
0.998077 -0.776147 1.763810
0.994659 -0.777123 1.766830
0.992218 -0.779077 1.771930
0.984161 -0.776391 1.766830
0.980010 -0.777123 1.768910
0.978545 -0.779809 1.775870
0.976104 -0.781762 1.780970
0.970733 -0.781518 1.780970
0.962920 -0.779077 1.775870
0.957549 -0.778832 1.775870
0.955107 -0.780786 1.780970
0.951445 -0.781762 1.783990
0.944609 -0.780053 1.780970
0.941679 -0.781518 1.784920
0.940703 -0.784936 1.792800
0.932646 -0.782495 1.787930
0.925565 -0.780541 1.783990
0.915067 -0.775903 1.773780
0.912137 -0.777367 1.777960
0.911405 -0.781030 1.786770
0.910428 -0.784204 1.794890
0.906278 -0.784936 1.796980
0.898953 -0.782983 1.792800
0.891873 -0.781030 1.788860
0.884793 -0.779077 1.784920
0.878689 -0.778100 1.782830
0.873562 -0.777856 1.782830
0.871364 -0.780297 1.788860
0.865749 -0.779565 1.787930
0.863063 -0.781518 1.792800
0.855983 -0.779565 1.788860
0.846706 -0.775414 1.779820
0.836940 -0.771020 1.769840
0.835231 -0.773949 1.776800
0.834742 -0.778100 1.786770
0.828883 -0.776879 1.784920
0.963164 -0.764916 1.728790
0.960967 -0.766625 1.733890
0.963408 -0.772729 1.747810
0.962188 -0.775414 1.755000
0.956328 -0.774682 1.753840
0.950713 -0.773949 1.752910
0.948271 -0.775903 1.757780
0.943144 -0.775658 1.757780
0.941679 -0.778344 1.764970
0.937040 -0.778588 1.765900
0.937040 -0.782739 1.775870
0.933378 -0.783959 1.778890
0.927763 -0.783227 1.777960
0.917508 -0.778588 1.767990
0.912381 -0.778344 1.767990
0.907743 -0.778344 1.768910
0.906034 -0.781274 1.775870
0.900418 -0.780541 1.774940
0.898465 -0.782983 1.780970
0.892850 -0.782495 1.779820
0.886746 -0.781274 1.777960
0.877468 -0.777612 1.769840
0.874538 -0.779077 1.773780
0.868435 -0.778100 1.771930
0.863308 -0.777856 1.771930
0.854762 -0.774438 1.764970
0.853298 -0.777367 1.771930
0.851588 -0.780297 1.778890
0.843532 -0.777367 1.772860
0.832789 -0.771996 1.760800
0.830103 -0.773949 1.765900
0.828883 -0.777367 1.773780
0.822535 -0.775903 1.770770
0.913358 -0.771752 1.739920
0.908231 -0.771508 1.739920
0.898953 -0.767602 1.731800
0.893338 -0.766869 1.730880
0.894559 -0.771996 1.742940
0.893582 -0.775414 1.750820
0.888455 -0.775170 1.750820
0.885037 -0.776147 1.753840
0.879910 -0.775903 1.753840
0.876980 -0.777612 1.757780
0.870388 -0.775903 1.755000
0.869167 -0.779321 1.762880
0.863796 -0.778588 1.761960
0.856716 -0.776635 1.757780
0.848170 -0.773461 1.750820
0.848170 -0.777612 1.760800
0.844997 -0.779077 1.764970
0.837672 -0.776635 1.759870
0.832545 -0.776635 1.759870
0.828394 -0.777367 1.761960
0.825465 -0.778832 1.765900
