-0.882351 0.283944 2.081800
-0.887478 0.283700 2.080870
-0.893582 0.283944 2.081800
-0.898953 0.283700 2.080870
-0.904569 0.283700 2.080870
-0.854518 0.278329 2.082960
-0.859890 0.278085 2.081800
-0.865505 0.278085 2.081800
-0.870632 0.278085 2.080870
-0.876247 0.278085 2.080870
-0.882839 0.278329 2.082960
-0.888455 0.278329 2.082960
-0.894559 0.278573 2.083890
-0.899686 0.278329 2.082960
-0.905301 0.278329 2.082960
-0.854274 0.272469 2.081800
-0.859890 0.272469 2.081800
-0.866237 0.272713 2.083890
-0.870144 0.272225 2.079950
-0.875027 0.271981 2.077860
-0.880642 0.271981 2.077860
-0.886746 0.272225 2.078790
-0.893582 0.272469 2.081800
-0.899197 0.272469 2.081800
-0.906766 0.273202 2.085980
-0.853786 0.266854 2.080870
-0.859890 0.266854 2.081800
-0.865505 0.266854 2.081800
-0.869900 0.266610 2.078790
-0.874294 0.266121 2.075770
-0.880154 0.266366 2.076930
-0.887234 0.266610 2.079950
-0.894070 0.267098 2.082960
-0.899197 0.266854 2.081800
-0.853786 0.261238 2.080870
-0.859401 0.261238 2.080870
-0.865993 0.261483 2.082960
-0.870144 0.260994 2.079950
-0.874294 0.260506 2.075770
-0.878933 0.260262 2.073920
-0.885525 0.260506 2.075770
-0.892850 0.260994 2.079950
-0.859890 0.255623 2.081800
-0.865749 0.255867 2.082960
-0.871120 0.255623 2.081800
-0.876247 0.255623 2.080870
-0.881619 0.255379 2.079950
-0.894803 0.256111 2.084820
-0.859890 0.250008 2.081800
-0.866237 0.250252 2.083890
-0.871853 0.250252 2.083890
-0.877468 0.250252 2.083890
-0.882839 0.250252 2.082960
-0.888943 0.250252 2.083890
-0.894559 0.250252 2.083890
-0.859890 0.244392 2.081800
-0.866726 0.244881 2.084820
-0.873074 0.245125 2.086900
-0.879177 0.245125 2.087830
-0.884060 0.244881 2.085980
-0.860134 0.239021 2.082960
-0.854274 0.233161 2.081800
-0.859401 0.233161 2.080870
-0.854274 0.227546 2.081800
-0.859401 0.227546 2.080870
-0.853298 0.221686 2.079950
-0.859401 0.221931 2.080870
-0.865505 0.221931 2.081800
-0.871120 0.221931 2.081800
-0.876736 0.221931 2.081800
-0.881375 0.221686 2.079950
-0.886746 0.221686 2.078790
-0.891385 0.221442 2.076930
-0.897000 0.221442 2.076930
-0.854518 0.216315 2.082960
-0.860134 0.216315 2.082960
-0.865505 0.216315 2.081800
-0.871609 0.216315 2.082960
-0.877957 0.216559 2.084820
-0.882839 0.216315 2.082960
-0.887967 0.216315 2.081800
-0.891873 0.215827 2.077860
-0.897977 0.216071 2.078790
-0.850612 0.211188 2.086900
-0.855739 0.211188 2.085980
-0.860134 0.210700 2.082960
-0.865017 0.210456 2.080870
-0.872341 0.210944 2.084820
-0.879665 0.211432 2.088990
-0.884060 0.211188 2.085980
-0.887967 0.210700 2.081800
-0.891385 0.210211 2.076930
-0.898465 0.210456 2.079950
-0.851833 0.205817 2.089920
-0.855495 0.205329 2.084820
-0.860134 0.205084 2.082960
-0.864528 0.204840 2.079950
-0.873074 0.205573 2.086900
-0.880154 0.205817 2.089920
-0.884548 0.205573 2.086900
-0.887967 0.205084 2.081800
-0.892850 0.204840 2.079950
-0.899197 0.205084 2.081800
-0.851100 0.199957 2.087830
-0.855495 0.199713 2.084820
-0.860134 0.199469 2.082960
-0.865505 0.199469 2.081800
-0.873074 0.199957 2.086900
-0.879177 0.199957 2.087830
-0.884060 0.199713 2.085980
-0.887478 0.199225 2.080870
-0.891873 0.198981 2.077860
-0.897488 0.198981 2.077860
-0.904324 0.199225 2.080870
-0.854274 0.193854 2.081800
-0.859890 0.193854 2.081800
-0.865993 0.193854 2.082960
-0.872829 0.194098 2.085980
-0.878445 0.194098 2.085980
-0.883084 0.193854 2.083890
-0.888455 0.193854 2.082960
-0.893582 0.193854 2.081800
-0.904324 0.193609 2.080870
-0.859890 0.188238 2.081800
-0.866726 0.188482 2.084820
-0.872341 0.188482 2.084820
-0.878445 0.188482 2.085980
-0.884060 0.188482 2.085980
-0.889676 0.188482 2.085980
-0.896268 0.188726 2.087830
-0.901883 0.188726 2.087830
-0.907010 0.188726 2.086900
-0.912381 0.188482 2.085980
-0.917508 0.188482 2.084820
-0.860134 0.182623 2.082960
-0.867458 0.182867 2.086900
-0.871853 0.182623 2.083890
-0.877224 0.182623 2.082960
-0.883084 0.182623 2.083890
-0.890896 0.183111 2.088990
-0.898709 0.183599 2.093860
-0.904813 0.183599 2.094790
-0.908719 0.183355 2.090850
-0.913602 0.183111 2.088990
-0.918241 0.182867 2.086900
-0.872341 0.177252 2.084820
-0.876736 0.177007 2.081800
-0.883084 0.177007 2.083890
-0.890164 0.177252 2.086900
-0.898709 0.177984 2.093860
-0.904813 0.177984 2.094790
-0.908719 0.177740 2.090850
-0.912625 0.177252 2.086900
-0.916532 0.177007 2.082960
-0.967559 0.177007 2.082960
-0.974151 0.177252 2.084820
-0.979278 0.177252 2.083890
-0.985870 0.177252 2.085980
-0.992218 0.177496 2.086900
-0.876247 0.171148 2.080870
-0.882351 0.171392 2.081800
-0.888455 0.171392 2.082960
-0.896268 0.171880 2.087830
-0.902615 0.171880 2.089920
-0.906522 0.171636 2.085980
-0.910916 0.171392 2.082960
-0.915799 0.171148 2.080870
-0.923612 0.171636 2.085980
-0.929228 0.171636 2.085980
-0.933622 0.171392 2.082960
-0.937284 0.171148 2.078790
-0.943144 0.171148 2.078790
-0.949980 0.171392 2.081800
-0.956084 0.171392 2.082960
-0.961455 0.171392 2.081800
-0.967559 0.171392 2.082960
-0.974151 0.171636 2.084820
-0.981719 0.171880 2.088990
-0.988311 0.172124 2.090850
-0.878933 0.166021 2.086900
-0.885769 0.166265 2.089920
-0.889676 0.166021 2.085980
-0.896512 0.166265 2.088990
-0.902615 0.166265 2.089920
-0.908231 0.166265 2.089920
-0.911893 0.165777 2.084820
-0.916044 0.165532 2.081800
-0.923612 0.166021 2.085980
-0.929716 0.166021 2.086900
-0.934355 0.166021 2.084820
-0.939970 0.166021 2.084820
-0.945830 0.166021 2.084820
-0.957060 0.166021 2.084820
-0.962188 0.165777 2.083890
-0.968047 0.165777 2.083890
-0.974639 0.166021 2.085980
-0.982696 0.166509 2.090850
-0.989776 0.166753 2.093860
-0.878933 0.160405 2.086900
-0.885769 0.160649 2.089920
-0.890896 0.160649 2.088990
-0.897000 0.160649 2.089920
-0.903104 0.160649 2.090850
-0.908719 0.160649 2.090850
-0.911893 0.160161 2.084820
-0.917020 0.160161 2.083890
-0.923612 0.160405 2.085980
-0.930448 0.160649 2.088990
-0.934843 0.160405 2.085980
-0.940947 0.160405 2.086900
-0.947050 0.160405 2.087830
-0.954619 0.160894 2.091780
-0.959746 0.160649 2.090850
-0.964141 0.160405 2.087830
-0.968780 0.160405 2.085980
-0.975127 0.160405 2.086900
-0.983428 0.160894 2.092930
-0.990265 0.161138 2.094790
-0.852565 0.155034 2.091780
-0.858669 0.155278 2.092930
-0.864040 0.155034 2.091780
-0.886258 0.155034 2.090850
-0.892117 0.155034 2.091780
-0.898221 0.155278 2.092930
-0.903104 0.155034 2.090850
-0.909207 0.155034 2.091780
-0.912625 0.154790 2.086900
-0.919706 0.155034 2.089920
-0.925321 0.155034 2.089920
-0.931913 0.155034 2.091780
-0.936308 0.155034 2.088990
-0.941923 0.155034 2.088990
-0.947539 0.155034 2.088990
-0.954619 0.155278 2.091780
-0.961211 0.155278 2.093860
-0.965850 0.155278 2.091780
-0.969756 0.154790 2.087830
-0.974639 0.154790 2.085980
-0.981719 0.155034 2.088990
-0.987823 0.155034 2.089920
-0.858669 0.149663 2.092930
-0.864040 0.149419 2.091780
-0.868679 0.149419 2.089920
-0.871853 0.148930 2.083890
-0.877957 0.148930 2.084820
-0.884548 0.149174 2.086900
-0.890896 0.149174 2.088990
-0.897488 0.149419 2.090850
-0.902371 0.149174 2.088990
-0.907498 0.149174 2.087830
-0.912137 0.149174 2.085980
-0.919706 0.149419 2.089920
-0.925321 0.149419 2.089920
-0.931425 0.149419 2.090850
-0.936308 0.149174 2.088990
-0.940947 0.149174 2.086900
-0.946074 0.149174 2.085980
-0.952666 0.149174 2.087830
-0.960234 0.149419 2.091780
-0.965850 0.149419 2.091780
-0.969756 0.149174 2.087830
-0.975372 0.149174 2.087830
-0.981719 0.149419 2.088990
-0.988800 0.149419 2.091780
-0.994415 0.149663 2.091780
-1.000520 0.149663 2.092930
-1.006380 0.149663 2.092930
-1.011020 0.149419 2.090850
-0.857448 0.143803 2.089920
-0.861843 0.143559 2.086900
-0.868435 0.143559 2.088990
-0.872829 0.143315 2.085980
-0.878933 0.143559 2.086900
-0.884793 0.143559 2.087830
-0.891873 0.143803 2.090850
-0.897977 0.143803 2.091780
-0.902615 0.143803 2.089920
-0.907987 0.143559 2.088990
-0.913114 0.143559 2.087830
-0.920194 0.143803 2.090850
-0.924345 0.143559 2.087830
-0.930448 0.143559 2.088990
-0.936308 0.143559 2.088990
-0.942412 0.143803 2.089920
-0.946562 0.143559 2.086900
-0.951933 0.143315 2.085980
-0.958525 0.143559 2.087830
-0.965606 0.143803 2.090850
-0.970244 0.143559 2.088990
-0.975860 0.143559 2.088990
-0.980743 0.143559 2.086900
-0.987823 0.143803 2.089920
-0.992950 0.143559 2.088990
-0.999786 0.143803 2.090850
-1.004430 0.143803 2.088990
-1.008580 0.143559 2.085980
-1.013950 0.143315 2.084820
-0.857204 0.137944 2.088990
-0.860622 0.137700 2.083890
-0.867214 0.137700 2.085980
-0.873562 0.137944 2.087830
-0.879177 0.137944 2.087830
-0.883572 0.137700 2.084820
-0.889676 0.137700 2.085980
-0.895779 0.137944 2.086900
-0.901883 0.137944 2.087830
-0.906278 0.137700 2.084820
-0.911893 0.137700 2.084820
-0.917997 0.137700 2.085980
-0.922636 0.137700 2.083890
-0.929228 0.137700 2.085980
-0.936308 0.137944 2.088990
-0.942412 0.137944 2.089920
-0.947050 0.137944 2.087830
-0.951933 0.137700 2.085980
-0.958037 0.137944 2.086900
-0.964141 0.137944 2.087830
-0.969268 0.137944 2.086900
-0.975860 0.137944 2.088990
-0.980743 0.137944 2.086900
-0.988311 0.138188 2.090850
-0.993439 0.138188 2.089920
-1.000030 0.138188 2.091780
-1.005400 0.138188 2.090850
-1.008090 0.137700 2.084820
-1.013460 0.137700 2.083890
-0.866237 0.132084 2.083890
-0.874050 0.132328 2.088990
-0.879177 0.132328 2.087830
-0.884548 0.132084 2.086900
-0.889676 0.132084 2.085980
-0.896268 0.132328 2.087830
-0.901883 0.132328 2.087830
-0.906522 0.132084 2.085980
-0.912137 0.132084 2.085980
-0.917997 0.132084 2.085980
-0.922636 0.132084 2.083890
-0.929716 0.132084 2.086900
-0.936308 0.132328 2.088990
-0.943144 0.132572 2.091780
-0.948027 0.132328 2.089920
-0.952666 0.132328 2.087830
-0.958770 0.132328 2.088990
-0.964629 0.132328 2.088990
-0.968780 0.132084 2.085980
-0.974883 0.132328 2.086900
-0.980743 0.132328 2.086900
-0.986847 0.132328 2.087830
-0.990997 0.132084 2.084820
-0.997833 0.132328 2.086900
-1.002960 0.132084 2.085980
-1.007600 0.132084 2.083890
-1.011990 0.131840 2.080870
-0.857204 0.126713 2.088990
-0.861110 0.126469 2.084820
-0.867214 0.126469 2.085980
-0.874050 0.126713 2.088990
-0.878445 0.126469 2.085980
-0.884548 0.126469 2.086900
-0.889187 0.126469 2.084820
-0.895779 0.126469 2.086900
-0.900174 0.126469 2.083890
-0.906278 0.126469 2.084820
-0.911893 0.126469 2.084820
-0.917997 0.126469 2.085980
-0.924833 0.126713 2.088990
-0.931425 0.126713 2.090850
-0.938017 0.126957 2.092930
-0.942656 0.126713 2.090850
-0.947539 0.126713 2.088990
-0.953642 0.126713 2.089920
-0.959258 0.126713 2.089920
-0.965117 0.126713 2.089920
-0.968780 0.126469 2.085980
-0.976348 0.126713 2.089920
-0.981719 0.126713 2.088990
-0.988311 0.126957 2.090850
-0.991974 0.126713 2.086900
-0.999542 0.126957 2.090850
-0.850368 0.120853 2.085980
-0.857448 0.121097 2.089920
-0.863063 0.121097 2.089920
-0.867946 0.121097 2.087830
-0.873074 0.120853 2.086900
-0.877957 0.120853 2.084820
-0.885281 0.121097 2.088990
-0.890408 0.120853 2.087830
-0.895779 0.120853 2.086900
-0.900174 0.120853 2.083890
-0.907010 0.120853 2.086900
-0.913602 0.121097 2.088990
-0.919218 0.121097 2.088990
-0.925810 0.121097 2.090850
-0.931425 0.121097 2.090850
-0.937529 0.121097 2.091780
-0.942412 0.121097 2.089920
-0.946562 0.120853 2.086900
-0.951933 0.120853 2.085980
-0.958037 0.120853 2.086900
-0.965361 0.121097 2.090850
-0.971221 0.121097 2.090850
-0.979766 0.121586 2.096880
-0.983428 0.121342 2.092930
-0.988800 0.121342 2.091780
-0.990509 0.120853 2.083890
-0.850368 0.115238 2.085980
-0.856227 0.115238 2.086900
-0.863552 0.115482 2.090850
-0.869655 0.115482 2.091780
-0.874050 0.115482 2.088990
-0.879177 0.115238 2.087830
-0.884548 0.115238 2.086900
-0.889676 0.115238 2.085980
-0.895291 0.115238 2.085980
-0.901883 0.115238 2.087830
-0.909696 0.115726 2.092930
-0.915799 0.115726 2.093860
-0.920438 0.115482 2.091780
-0.926542 0.115726 2.092930
-0.931425 0.115482 2.090850
-0.938505 0.115726 2.093860
-0.942656 0.115482 2.090850
-0.948027 0.115482 2.089920
-0.953154 0.115482 2.088990
-0.958525 0.115238 2.087830
-0.965117 0.115482 2.089920
-0.970733 0.115482 2.089920
-0.979278 0.115726 2.095950
-0.982452 0.115482 2.090850
-0.988311 0.115482 2.090850
-0.990509 0.115238 2.083890
-1.055450 0.115482 2.087830
-1.062040 0.115482 2.089920
-1.069860 0.115726 2.093860
-0.851100 0.109622 2.087830
-0.857936 0.109867 2.090850
-0.864772 0.110111 2.093860
-0.869167 0.109867 2.090850
-0.873074 0.109622 2.086900
-0.878933 0.109622 2.086900
-0.884548 0.109622 2.086900
-0.890164 0.109622 2.086900
-0.895779 0.109622 2.086900
-0.903592 0.109867 2.091780
-0.910916 0.110111 2.095950
-0.916532 0.110111 2.095950
-0.920927 0.109867 2.092930
-0.925810 0.109867 2.090850
-0.929960 0.109622 2.087830
-0.936552 0.109867 2.089920
-0.941435 0.109622 2.087830
-0.947050 0.109622 2.087830
-0.952178 0.109622 2.086900
-0.958037 0.109622 2.086900
-0.963164 0.109622 2.085980
-0.968780 0.109622 2.085980
-0.977813 0.109867 2.092930
-0.982452 0.109867 2.090850
-0.986847 0.109622 2.087830
-0.989532 0.109378 2.081800
-1.062040 0.109867 2.089920
-1.069370 0.110111 2.092930
-1.074740 0.110111 2.091780
-0.851588 0.104007 2.088990
-0.857448 0.104251 2.089920
-0.863552 0.104251 2.090850
-0.870144 0.104251 2.092930
-0.874783 0.104251 2.090850
-0.880398 0.104251 2.090850
-0.886258 0.104251 2.090850
-0.891385 0.104251 2.089920
-0.898221 0.104251 2.092930
-0.904080 0.104251 2.092930
-0.910428 0.104495 2.094790
-0.915311 0.104251 2.092930
-0.920927 0.104251 2.092930
-0.926298 0.104251 2.091780
-0.931425 0.104251 2.090850
-0.937529 0.104251 2.091780
-0.942412 0.104251 2.089920
-0.948515 0.104251 2.090850
-0.953642 0.104251 2.089920
-0.958281 0.104007 2.087830
-0.962676 0.104007 2.084820
-0.967803 0.103763 2.083890
-0.975372 0.104007 2.087830
-0.982452 0.104251 2.090850
-0.987335 0.104007 2.088990
-1.071570 0.104007 2.085980
-0.847926 0.098636 2.093860
-0.853542 0.098636 2.093860
-0.858669 0.098636 2.092930
-0.861843 0.098392 2.086900
-0.868435 0.098392 2.088990
-0.874538 0.098392 2.089920
-0.880154 0.098392 2.089920
-0.886258 0.098636 2.090850
-0.891873 0.098636 2.090850
-0.897977 0.098636 2.091780
-0.902615 0.098392 2.089920
-0.915311 0.098636 2.092930
-0.920927 0.098636 2.092930
-0.925810 0.098636 2.090850
-0.930448 0.098392 2.088990
-0.936552 0.098392 2.089920
-0.941923 0.098392 2.088990
-0.948515 0.098636 2.090850
-0.954619 0.098636 2.091780
-0.959746 0.098636 2.090850
-0.963164 0.098392 2.085980
-0.967315 0.098147 2.082960
-0.974395 0.098392 2.085980
-0.982452 0.098636 2.090850
-1.065220 0.098392 2.084820
-1.077910 0.098392 2.086900
-1.083530 0.098392 2.086900
-1.088170 0.098392 2.084820
-1.094030 0.098392 2.084820
-0.847438 0.093020 2.092930
-0.852809 0.093020 2.091780
-0.857204 0.092776 2.088990
-0.861110 0.092532 2.084820
-0.867946 0.092776 2.087830
-0.874783 0.092776 2.090850
-0.881863 0.093020 2.093860
-0.888211 0.093020 2.095950
-0.894803 0.093265 2.097810
-0.898709 0.093020 2.093860
-0.902615 0.092776 2.089920
-0.914823 0.093020 2.091780
-0.920927 0.093020 2.092930
-0.925810 0.092776 2.090850
-0.929960 0.092776 2.087830
-0.936552 0.092776 2.089920
-0.943144 0.093020 2.091780
-0.948027 0.092776 2.089920
-0.964141 0.092776 2.087830
-0.967803 0.092532 2.083890
-0.973662 0.092532 2.083890
-1.009550 0.093265 2.099890
-1.049590 0.092776 2.087830
-1.054230 0.092776 2.085980
-1.059110 0.092776 2.083890
-1.064730 0.092776 2.083890
-1.071080 0.092776 2.084820
-1.077180 0.092776 2.085980
-1.082060 0.092776 2.083890
-1.087190 0.092776 2.082960
-1.094030 0.092776 2.084820
-0.846950 0.087405 2.091780
-0.853542 0.087405 2.093860
-0.857936 0.087161 2.090850
-0.861599 0.086917 2.085980
-0.867458 0.087161 2.086900
-0.873562 0.087161 2.087830
-0.880154 0.087161 2.089920
-0.886502 0.087161 2.091780
-0.893826 0.087405 2.095950
-0.899930 0.087405 2.096880
-0.904813 0.087405 2.094790
-0.915311 0.087405 2.092930
-0.920194 0.087161 2.090850
-0.925321 0.087161 2.089920
-0.929716 0.087161 2.086900
-0.937040 0.087161 2.090850
-0.943144 0.087405 2.091780
-0.947539 0.087161 2.088990
-0.968291 0.086917 2.084820
-1.008090 0.087649 2.096880
-1.045930 0.087405 2.091780
-1.071080 0.087161 2.084820
-1.076200 0.087161 2.083890
-1.079380 0.086917 2.078790
-1.085730 0.086917 2.079950
-0.847438 0.081790 2.092930
-0.852809 0.081546 2.091780
-0.857936 0.081546 2.090850
-0.863063 0.081546 2.089920
-0.869655 0.081546 2.091780
-0.875271 0.081546 2.091780
-0.880398 0.081546 2.090850
-0.886990 0.081546 2.092930
-0.893826 0.081790 2.095950
-0.900418 0.081790 2.097810
-0.905301 0.081790 2.095950
-0.915799 0.081790 2.093860
-0.920927 0.081546 2.092930
-0.925810 0.081546 2.090850
-0.930937 0.081546 2.089920
-0.937529 0.081546 2.091780
-0.943144 0.081546 2.091780
-0.948027 0.081546 2.089920
-0.971221 0.081546 2.090850
-1.002960 0.081790 2.097810
-1.007600 0.081790 2.095950
-1.047400 0.081790 2.094790
-1.067420 0.081546 2.088990
-1.071080 0.081546 2.084820
-1.076690 0.081546 2.084820
-1.079870 0.081301 2.079950
-1.084020 0.081057 2.076930
-1.090850 0.081301 2.078790
-0.847194 0.075930 2.091780
-0.854030 0.076174 2.094790
-0.859157 0.075930 2.093860
-0.864040 0.075930 2.091780
-0.869655 0.075930 2.091780
-0.874783 0.075930 2.090850
-0.880154 0.075930 2.089920
-0.885281 0.075930 2.088990
-0.891385 0.075930 2.089920
-0.898709 0.075930 2.093860
-0.907010 0.076174 2.099890
-0.913114 0.076418 2.100820
-0.917997 0.076174 2.098970
-0.921903 0.076174 2.094790
-0.927030 0.075930 2.093860
-0.932401 0.075930 2.092930
-0.938505 0.075930 2.093860
-0.945097 0.076174 2.095950
-0.951201 0.076174 2.096880
-0.964629 0.075930 2.088990
-0.971221 0.075930 2.090850
-0.974395 0.075686 2.085980
-0.979278 0.075686 2.083890
-1.025670 0.075686 2.085980
-1.047880 0.076174 2.095950
-1.057410 0.075930 2.091780
-1.061070 0.075930 2.087830
-1.066680 0.075930 2.087830
-1.072050 0.075930 2.086900
-1.078890 0.075930 2.088990
-1.083040 0.075930 2.085980
-1.086700 0.075686 2.081800
-1.089880 0.075442 2.076930
-0.846706 0.070315 2.090850
-0.853542 0.070315 2.093860
-0.859645 0.070315 2.094790
-0.864772 0.070315 2.093860
-0.870388 0.070315 2.093860
-0.876003 0.070315 2.093860
-0.881863 0.070315 2.093860
-0.886502 0.070315 2.091780
-0.890896 0.070315 2.088990
-0.897000 0.070315 2.089920
-0.905789 0.070559 2.096880
-0.913602 0.070559 2.101980
-0.918729 0.070559 2.100820
-0.922391 0.070559 2.095950
-0.926542 0.070315 2.092930
-0.932401 0.070315 2.092930
-0.938017 0.070315 2.092930
-0.944609 0.070315 2.094790
-0.950713 0.070559 2.095950
-0.954619 0.070315 2.091780
-0.958770 0.070315 2.088990
-0.963652 0.070070 2.086900
-1.011020 0.070803 2.102910
-1.027620 0.070315 2.089920
-1.048370 0.070559 2.096880
-1.053990 0.070559 2.096880
-1.059360 0.070559 2.095950
-1.063020 0.070315 2.091780
-1.067900 0.070315 2.089920
-1.072050 0.070315 2.086900
-1.078890 0.070315 2.088990
-1.083530 0.070315 2.086900
-1.088660 0.070315 2.085980
-0.845973 0.064455 2.088990
-0.854274 0.064699 2.095950
-0.861110 0.064943 2.098970
-0.865993 0.064699 2.096880
-0.870388 0.064699 2.093860
-0.876003 0.064699 2.093860
-0.882107 0.064699 2.094790
-0.886990 0.064699 2.092930
-0.892117 0.064699 2.091780
-0.897000 0.064699 2.089920
-0.904813 0.064699 2.094790
-0.910916 0.064699 2.095950
-0.916532 0.064699 2.095950
-0.920438 0.064699 2.091780
-0.926298 0.064699 2.091780
-0.932401 0.064699 2.092930
-0.951201 0.064943 2.096880
-0.955840 0.064699 2.094790
-0.960234 0.064699 2.091780
-0.965850 0.064699 2.091780
-0.972442 0.064699 2.093860
-0.979522 0.064943 2.096880
-0.985870 0.064943 2.097810
-0.998077 0.064943 2.099890
-1.003940 0.064943 2.099890
-1.010040 0.064943 2.100820
-1.018590 0.064699 2.094790
-1.023960 0.064699 2.093860
-1.030060 0.064699 2.094790
-1.042020 0.064943 2.095950
-1.047880 0.064943 2.095950
-1.053010 0.064699 2.094790
-1.057890 0.064699 2.092930
-1.061070 0.064699 2.087830
-1.065710 0.064455 2.085980
-1.070590 0.064455 2.083890
-1.076690 0.064455 2.084820
-0.846706 0.059084 2.090850
-0.853053 0.059084 2.092930
-0.859890 0.059084 2.095950
-0.865261 0.059084 2.094790
-0.870388 0.059084 2.093860
-0.876003 0.059084 2.093860
-0.881863 0.059084 2.093860
-0.887478 0.059084 2.093860
-0.892605 0.059084 2.092930
-0.897488 0.059084 2.090850
-0.903592 0.059084 2.091780
-0.908719 0.059084 2.090850
-0.914090 0.058840 2.089920
-0.919706 0.058840 2.089920
-0.925810 0.059084 2.090850
-0.942656 0.059084 2.090850
-0.948515 0.059084 2.090850
-0.954619 0.059084 2.091780
-0.959746 0.059084 2.090850
-0.967315 0.059084 2.094790
-0.972442 0.059084 2.093860
-0.979522 0.059084 2.096880
-0.987091 0.059328 2.100820
-0.998077 0.059328 2.099890
-1.002960 0.059084 2.097810
-1.010040 0.059328 2.100820
-1.016390 0.059328 2.101980
-1.020050 0.059328 2.097810
-1.024450 0.059084 2.094790
-1.031040 0.059084 2.096880
-1.036900 0.059084 2.096880
-1.042510 0.059084 2.096880
-1.046420 0.059084 2.092930
-1.052520 0.059084 2.093860
-1.055700 0.059084 2.088990
-1.059600 0.058840 2.084820
-1.064240 0.058840 2.082960
-1.069370 0.058840 2.081800
-0.859645 0.053468 2.094790
-0.864528 0.053468 2.092930
-0.869655 0.053468 2.091780
-0.874783 0.053224 2.090850
-0.880886 0.053468 2.091780
-0.886990 0.053468 2.092930
-0.893094 0.053468 2.093860
-0.897977 0.053468 2.091780
-0.903104 0.053224 2.090850
-0.907498 0.053224 2.087830
-0.930448 0.053224 2.088990
-0.936552 0.053224 2.089920
-0.943144 0.053468 2.091780
-0.950224 0.053468 2.094790
-0.957305 0.053468 2.097810
-0.961943 0.053468 2.095950
-0.969512 0.053468 2.099890
-0.972930 0.053468 2.094790
-0.978301 0.053468 2.093860
-0.985382 0.053468 2.096880
-0.991974 0.053468 2.098970
-0.996368 0.053468 2.095950
-1.001010 0.053468 2.093860
-1.006620 0.053468 2.093860
-1.014440 0.053468 2.097810
-1.019070 0.053468 2.095950
-1.025420 0.053468 2.096880
-1.032010 0.053468 2.098970
-1.037870 0.053468 2.098970
-1.041540 0.053468 2.094790
-1.045440 0.053468 2.090850
-1.051550 0.053468 2.091780
-1.055700 0.053224 2.088990
-1.058380 0.053224 2.082960
-1.064240 0.053224 2.082960
-0.854762 0.047853 2.096880
-0.859890 0.047853 2.095950
-0.864772 0.047853 2.093860
-0.870144 0.047609 2.092930
-0.875271 0.047609 2.091780
-0.880886 0.047609 2.091780
-0.886502 0.047609 2.091780
-0.893582 0.047853 2.094790
-0.899197 0.047853 2.094790
-0.904813 0.047853 2.094790
-0.910428 0.047853 2.094790
-0.915311 0.047609 2.092930
-0.920927 0.047609 2.092930
-0.925321 0.047609 2.089920
-0.931913 0.047609 2.091780
-0.937040 0.047609 2.090850
-0.945097 0.047853 2.095950
-0.950224 0.047853 2.094790
-0.956816 0.047853 2.096880
-0.961699 0.047853 2.094790
-0.968291 0.047853 2.096880
-0.971954 0.047609 2.092930
-0.978301 0.047853 2.093860
-0.984405 0.047853 2.094790
-0.992462 0.047853 2.099890
-0.996857 0.047853 2.096880
-1.001980 0.047853 2.095950
-1.006130 0.047853 2.092930
-1.014440 0.047853 2.097810
-1.019560 0.047853 2.096880
-1.026400 0.047853 2.098970
-1.032010 0.047853 2.098970
-1.037390 0.047853 2.097810
-1.041540 0.047853 2.094790
-1.046420 0.047853 2.092930
-1.053010 0.047853 2.094790
-1.057410 0.047853 2.091780
-1.066190 0.047609 2.086900
-1.091340 0.047853 2.090850
-1.096710 0.047853 2.089920
-1.100860 0.047609 2.086900
-1.105500 0.047609 2.084820
-1.110140 0.047609 2.082960
-1.117710 0.047609 2.085980
-0.849879 0.042238 2.098970
-0.856471 0.042238 2.100820
-0.861110 0.042238 2.098970
-0.865749 0.042238 2.095950
-0.870876 0.041993 2.094790
-0.875759 0.041993 2.092930
-0.881863 0.041993 2.093860
-0.887967 0.041993 2.094790
-0.893826 0.042238 2.095950
-0.899686 0.042238 2.095950
-0.904080 0.041993 2.092930
-0.910916 0.042238 2.095950
-0.915799 0.041993 2.093860
-0.920438 0.041993 2.091780
-0.924833 0.041993 2.088990
-0.931913 0.041993 2.091780
-0.939238 0.042238 2.095950
-0.946318 0.042238 2.098970
-0.952422 0.042238 2.099890
-0.958525 0.042238 2.100820
-0.964385 0.042238 2.100820
-0.970000 0.042238 2.100820
-0.973418 0.042238 2.095950
-0.979522 0.042238 2.096880
-0.984405 0.041993 2.094790
-0.992950 0.042238 2.100820
-0.997101 0.042238 2.097810
-1.003450 0.042238 2.098970
-1.006130 0.041993 2.092930
-1.012480 0.041993 2.093860
-1.018590 0.042238 2.094790
-1.026400 0.042238 2.098970
-1.032500 0.042238 2.099890
-1.037390 0.042238 2.097810
-1.041540 0.042238 2.094790
-1.047880 0.042238 2.095950
-1.054480 0.042238 2.097810
-1.060340 0.042238 2.097810
-1.064000 0.042238 2.093860
-1.068390 0.041993 2.090850
-1.075470 0.042238 2.093860
-1.091830 0.041993 2.091780
-1.098670 0.042238 2.093860
-1.102820 0.041993 2.090850
-1.103790 0.041993 2.081800
-1.109160 0.041993 2.080870
-1.116000 0.041993 2.082960
-0.851588 0.036622 2.102910
-0.857936 0.036622 2.105000
-0.861110 0.036622 2.098970
-0.864528 0.036378 2.092930
-0.869655 0.036378 2.091780
-0.875759 0.036378 2.092930
-0.882107 0.036378 2.094790
-0.887967 0.036378 2.094790
-0.894314 0.036378 2.096880
-0.900418 0.036378 2.097810
-0.905789 0.036378 2.096880
-0.913114 0.036622 2.100820
-0.917997 0.036622 2.098970
-0.922636 0.036378 2.096880
-0.926542 0.036378 2.092930
-0.933134 0.036378 2.094790
-0.938505 0.036378 2.093860
-0.945830 0.036378 2.097810
-0.950713 0.036378 2.095950
-0.957793 0.036622 2.098970
-0.963897 0.036622 2.099890
-0.970489 0.036622 2.101980
-0.976348 0.036622 2.101980
-0.981475 0.036622 2.100820
-0.985382 0.036378 2.096880
-0.993927 0.036622 2.102910
-0.997101 0.036622 2.097810
-1.004430 0.036622 2.100820
-1.007600 0.036378 2.095950
-1.013950 0.036378 2.096880
-1.019560 0.036378 2.096880
-1.026400 0.036622 2.098970
-1.032990 0.036622 2.100820
-1.037870 0.036622 2.098970
-1.041540 0.036378 2.094790
-1.047880 0.036378 2.095950
-1.054960 0.036622 2.098970
-1.061310 0.036622 2.099890
-1.064000 0.036378 2.093860
-1.067170 0.036378 2.088990
-1.095490 0.036378 2.087830
-1.100860 0.036378 2.086900
-1.103790 0.036378 2.081800
-1.110630 0.036378 2.083890
-1.115020 0.036378 2.080870
-0.856716 0.030763 2.101980
-0.859890 0.030763 2.095950
-0.863552 0.030763 2.090850
-0.868435 0.030763 2.088990
-0.874783 0.030763 2.090850
-0.881375 0.030763 2.092930
-0.887478 0.030763 2.093860
-0.892605 0.030763 2.092930
-0.898709 0.030763 2.093860
-0.904813 0.030763 2.094790
-0.911893 0.030763 2.097810
-0.917020 0.030763 2.096880
-0.920927 0.030763 2.092930
-0.925810 0.030763 2.090850
-0.931913 0.030763 2.091780
-0.938017 0.030763 2.092930
-0.944121 0.030763 2.093860
-0.950224 0.030763 2.094790
-0.956816 0.030763 2.096880
-0.963408 0.030763 2.098970
-0.969512 0.030763 2.099890
-0.975860 0.030763 2.100820
-0.980987 0.030763 2.099890
-0.985870 0.030763 2.097810
-0.992950 0.030763 2.100820
-0.997101 0.030763 2.097810
-1.004430 0.030763 2.100820
-1.008580 0.030763 2.097810
-1.014920 0.030763 2.098970
-1.020540 0.030763 2.098970
-1.026890 0.030763 2.099890
-1.032990 0.031007 2.100820
-1.038360 0.030763 2.099890
-1.042020 0.030763 2.095950
-1.048370 0.030763 2.096880
-1.053990 0.030763 2.096880
-1.060820 0.030763 2.098970
-1.066190 0.030763 2.086900
-1.069860 0.030763 2.082960
-1.094030 0.030763 2.084820
-1.100130 0.030763 2.085980
-1.104530 0.030763 2.082960
-1.110630 0.030763 2.083890
-1.113800 0.030519 2.078790
-0.854762 0.025147 2.096880
-0.858669 0.025147 2.092930
-0.863063 0.025147 2.089920
-0.869167 0.025147 2.090850
-0.875759 0.025147 2.092930
-0.882595 0.025147 2.095950
-0.887967 0.025147 2.094790
-0.892605 0.025147 2.092930
-0.898221 0.025147 2.092930
-0.904324 0.025147 2.093860
-0.911405 0.025147 2.096880
-0.917508 0.025147 2.097810
-0.922391 0.025147 2.095950
-0.927030 0.025147 2.093860
-0.932401 0.025147 2.092930
-0.937529 0.025147 2.091780
-0.943144 0.025147 2.091780
-0.949248 0.025147 2.092930
-0.956328 0.025147 2.095950
-0.962920 0.025147 2.097810
-0.968780 0.025147 2.097810
-0.975860 0.025147 2.100820
-0.981475 0.025147 2.100820
-0.986358 0.025147 2.098970
-0.991485 0.025147 2.097810
-0.996368 0.025147 2.095950
-1.004430 0.025147 2.100820
-1.008090 0.025147 2.096880
-1.015900 0.025147 2.100820
-1.021520 0.025147 2.100820
-1.028840 0.025147 2.103840
-1.033480 0.025147 2.101980
-1.038850 0.025147 2.100820
-1.042020 0.025147 2.095950
-1.046910 0.025147 2.093860
-1.052520 0.025147 2.093860
-1.058380 0.025147 2.093860
-1.062530 0.025147 2.090850
-1.065710 0.025147 2.085980
-1.095000 0.025147 2.086900
-1.100130 0.025147 2.085980
-1.105990 0.025147 2.085980
-1.111850 0.025147 2.085980
-1.116000 0.024903 2.082960
-0.854030 0.019532 2.094790
-0.859645 0.019532 2.094790
-0.864040 0.019532 2.091780
-0.870388 0.019532 2.093860
-0.875759 0.019532 2.092930
-0.882595 0.019532 2.095950
-0.888211 0.019532 2.095950
-0.892605 0.019532 2.092930
-0.898709 0.019532 2.093860
-0.904324 0.019532 2.093860
-0.911893 0.019532 2.097810
-0.916288 0.019532 2.094790
-0.922636 0.019532 2.096880
-0.928495 0.019532 2.096880
-0.934599 0.019532 2.097810
-0.940214 0.019532 2.097810
-0.944609 0.019532 2.094790
-0.950713 0.019532 2.095950
-0.956328 0.019532 2.095950
-0.962920 0.019532 2.097810
-0.967803 0.019532 2.095950
-0.973907 0.019532 2.096880
-0.980499 0.019532 2.098970
-0.987579 0.019532 2.101980
-0.991974 0.019532 2.098970
-0.996612 0.019532 2.096880
-1.002960 0.019532 2.097810
-1.008090 0.019532 2.096880
-1.022000 0.019532 2.101980
-1.032500 0.019532 2.099890
-1.037870 0.019532 2.098970
-1.042510 0.019532 2.096880
-1.047880 0.019532 2.095950
-1.053010 0.019532 2.094790
-1.058380 0.019532 2.093860
-1.062530 0.019532 2.090850
-1.067660 0.019532 2.089920
-1.073030 0.019532 2.088990
-1.078650 0.019532 2.088990
-1.084990 0.019532 2.089920
-1.091340 0.019532 2.090850
-1.096470 0.019532 2.089920
-1.100860 0.019532 2.086900
-1.106970 0.019532 2.087830
-1.110630 0.019288 2.083890
-1.116000 0.019288 2.082960
-1.121130 0.019288 2.081800
-0.857936 0.013672 2.090850
-0.863063 0.013672 2.089920
-0.870876 0.013672 2.094790
-0.876492 0.013672 2.094790
-0.884304 0.013916 2.099890
-0.889187 0.013916 2.097810
-0.893826 0.013916 2.095950
-0.898709 0.013672 2.093860
-0.905301 0.013916 2.095950
-0.913114 0.013916 2.100820
-0.918729 0.013916 2.100820
-0.925810 0.013916 2.103840
-0.930204 0.013916 2.100820
-0.936308 0.013916 2.101980
-0.941191 0.013916 2.099890
-0.946318 0.013916 2.098970
-0.951933 0.013916 2.098970
-0.957305 0.013916 2.097810
-0.962920 0.013916 2.097810
-0.967803 0.013916 2.095950
-0.973418 0.013916 2.095950
-0.979034 0.013916 2.095950
-0.987091 0.013916 2.100820
-0.991974 0.013916 2.098970
-0.996612 0.013916 2.096880
-1.002470 0.013916 2.096880
-1.008580 0.013916 2.097810
-1.016390 0.013916 2.101980
-1.022000 0.013916 2.101980
-1.027860 0.013916 2.101980
-1.043490 0.013916 2.098970
-1.048860 0.013916 2.097810
-1.054480 0.013916 2.097810
-1.058870 0.013916 2.094790
-1.063510 0.013672 2.092930
-1.085970 0.013672 2.091780
-1.090850 0.013672 2.089920
-1.096470 0.013672 2.089920
-1.102330 0.013672 2.089920
-1.108680 0.013672 2.090850
-1.112340 0.013672 2.086900
-1.116490 0.013672 2.083890
-1.119660 0.013672 2.078790
-1.126500 0.013672 2.080870
-0.858669 0.008057 2.092930
-0.863063 0.008057 2.089920
-0.870876 0.008057 2.094790
-0.876980 0.008057 2.095950
-0.883816 0.008057 2.098970
-0.886990 0.008057 2.092930
-0.892605 0.008057 2.092930
-0.899930 0.008057 2.096880
-0.907743 0.008057 2.101980
-0.915311 0.008057 2.105920
-0.918729 0.008057 2.100820
-0.923612 0.008057 2.098970
-0.928495 0.008057 2.096880
-0.935331 0.008057 2.099890
-0.941191 0.008057 2.099890
-0.947783 0.008057 2.101980
-0.951933 0.008057 2.098970
-0.957793 0.008057 2.098970
-0.963408 0.008057 2.098970
-0.968780 0.008057 2.097810
-0.974395 0.008057 2.097810
-0.978790 0.008057 2.094790
-0.989044 0.008057 2.105000
-0.992462 0.008057 2.099890
-0.998077 0.008057 2.099890
-1.001010 0.008057 2.093860
-1.009550 0.008057 2.099890
-1.015900 0.008057 2.100820
-1.022490 0.008057 2.102910
-1.026400 0.008057 2.098970
-1.032010 0.008057 2.098970
-1.037390 0.008057 2.097810
-1.048860 0.008057 2.097810
-1.055450 0.008057 2.099890
-1.059360 0.008057 2.095950
-1.064970 0.008057 2.095950
-1.069370 0.008057 2.092930
-1.074500 0.008057 2.091780
-1.079870 0.008057 2.090850
-1.084510 0.008057 2.088990
-1.089140 0.008057 2.086900
-1.095490 0.008057 2.087830
-1.102330 0.008057 2.089920
-1.106970 0.008057 2.087830
-1.111360 0.008057 2.084820
-1.116000 0.008057 2.082960
-1.121860 0.008057 2.082960
-1.127480 0.008057 2.082960
-1.132850 0.008057 2.081800
-0.853542 0.002441 2.093860
-0.863063 0.002441 2.089920
-0.871609 0.002441 2.096880
-0.878689 0.002441 2.099890
-0.884793 0.002441 2.100820
-0.887967 0.002441 2.094790
-0.892117 0.002441 2.091780
-0.899686 0.002441 2.095950
-0.906522 0.002441 2.098970
-0.913602 0.002441 2.101980
-0.917508 0.002441 2.097810
-0.922391 0.002441 2.095950
-0.948515 0.002441 2.103840
-0.952910 0.002441 2.100820
-0.958281 0.002441 2.099890
-0.965606 0.002441 2.103840
-0.971465 0.002441 2.103840
-0.975860 0.002441 2.100820
-0.980010 0.002441 2.097810
-0.988556 0.002441 2.103840
-0.992462 0.002441 2.099890
-0.997589 0.002441 2.098970
-1.001500 0.002441 2.094790
-1.013460 0.002441 2.095950
-1.019560 0.002441 2.096880
-1.024930 0.002441 2.095950
-1.030550 0.002441 2.095950
-1.036410 0.002441 2.095950
-1.043000 0.002441 2.097810
-1.048370 0.002441 2.096880
-1.054480 0.002441 2.097810
-1.058380 0.002441 2.093860
-1.064970 0.002441 2.095950
-1.069370 0.002441 2.092930
-1.074980 0.002441 2.092930
-1.079870 0.002441 2.090850
-1.085970 0.002441 2.091780
-1.090850 0.002441 2.089920
-1.096470 0.002441 2.089920
-1.104530 0.002441 2.093860
-1.109650 0.002441 2.092930
-1.113320 0.002441 2.088990
-1.118200 0.002441 2.086900
-1.123810 0.002441 2.086900
-1.129670 0.002441 2.086900
-1.133340 0.002441 2.082960
-1.137490 0.002441 2.079950
-0.853542 -0.002930 2.093860
-0.859645 -0.002930 2.094790
-0.864040 -0.002930 2.091780
-0.871364 -0.002930 2.095950
-0.878201 -0.002930 2.098970
-0.883816 -0.002930 2.098970
-0.887967 -0.002930 2.094790
-0.893094 -0.002930 2.093860
-0.901395 -0.002930 2.099890
-0.907498 -0.002930 2.100820
-0.913602 -0.002930 2.101980
-0.958525 -0.002930 2.100820
-0.965361 -0.002930 2.102910
-0.970977 -0.002930 2.102910
-0.975372 -0.002930 2.099890
-0.980987 -0.002930 2.099890
-0.990020 -0.002930 2.106850
-0.991974 -0.002930 2.098970
-0.996612 -0.002930 2.096880
-1.001010 -0.002930 2.093860
-1.007110 -0.002930 2.094790
-1.018590 -0.002930 2.094790
-1.023960 -0.002930 2.093860
-1.028600 -0.002930 2.091780
-1.034940 -0.002930 2.092930
-1.043000 -0.002930 2.097810
-1.048860 -0.002930 2.097810
-1.054960 -0.002930 2.098970
-1.057890 -0.002930 2.092930
-1.063510 -0.002930 2.092930
-1.069860 -0.002930 2.093860
-1.077180 -0.002930 2.096880
-1.082310 -0.002930 2.095950
-1.086700 -0.002930 2.092930
-1.090370 -0.002930 2.088990
-1.096470 -0.002930 2.089920
-1.102820 -0.002930 2.090850
-1.109160 -0.002930 2.091780
-1.112830 -0.002930 2.087830
-1.117470 -0.002930 2.085980
-1.125520 -0.002930 2.089920
-1.131870 -0.002930 2.090850
-1.137240 -0.002930 2.089920
-1.137490 -0.002930 2.079950
-1.142860 -0.002930 2.078790
-0.865749 -0.008545 2.095950
-0.873074 -0.008545 2.099890
-0.878933 -0.008545 2.100820
-0.883816 -0.008545 2.098970
-0.889431 -0.008545 2.098970
-0.894803 -0.008545 2.097810
-0.901395 -0.008545 2.099890
-0.906522 -0.008545 2.098970
-0.972930 -0.008545 2.094790
-0.981475 -0.008545 2.100820
-0.989044 -0.008545 2.105000
-0.993439 -0.008545 2.101980
-0.997101 -0.008545 2.097810
-1.002960 -0.008545 2.097810
-1.007600 -0.008545 2.095950
-1.014920 -0.008545 2.098970
-1.023470 -0.008545 2.092930
-1.027620 -0.008545 2.089920
-1.035430 -0.008545 2.093860
-1.042020 -0.008545 2.095950
-1.048370 -0.008545 2.096880
-1.052520 -0.008545 2.093860
-1.057410 -0.008545 2.091780
-1.062530 -0.008545 2.090850
-1.069860 -0.008545 2.093860
-1.077180 -0.008545 2.096880
-1.081820 -0.008545 2.094790
-1.085480 -0.008545 2.090850
-1.090370 -0.008545 2.088990
-1.097200 -0.008545 2.090850
-1.102820 -0.008545 2.090850
-1.110140 -0.008545 2.093860
-1.113320 -0.008545 2.088990
-1.117470 -0.008545 2.085980
-1.123810 -0.008545 2.086900
-1.131380 -0.008545 2.089920
-1.137240 -0.008545 2.089920
-1.139190 -0.008545 2.082960
-1.144320 -0.008545 2.081800
-0.867214 -0.014405 2.099890
-0.873318 -0.014405 2.100820
-0.878689 -0.014405 2.099890
-0.882595 -0.014405 2.095950
-0.887478 -0.014161 2.093860
-0.894314 -0.014405 2.096880
-0.901395 -0.014405 2.099890
-0.907743 -0.014405 2.101980
-0.911893 -0.014405 2.097810
-0.916288 -0.014161 2.094790
-0.920438 -0.014161 2.091780
-0.990020 -0.014405 2.106850
-0.993927 -0.014405 2.102910
-0.998566 -0.014405 2.100820
-1.003940 -0.014405 2.099890
-1.015410 -0.014405 2.099890
-1.020540 -0.014405 2.098970
-1.025910 -0.014405 2.097810
-1.029570 -0.014161 2.093860
-1.037870 -0.014405 2.098970
-1.043000 -0.014405 2.097810
-1.049840 -0.014405 2.099890
-1.054480 -0.014405 2.097810
-1.061310 -0.014405 2.099890
-1.064970 -0.014405 2.095950
-1.069860 -0.014405 2.093860
-1.074010 -0.014161 2.090850
-1.079380 -0.014161 2.089920
-1.084510 -0.014161 2.088990
-1.090370 -0.014161 2.088990
-1.097690 -0.014161 2.091780
-1.101350 -0.014161 2.087830
-1.107700 -0.014161 2.088990
-1.111360 -0.014161 2.084820
-1.118200 -0.014161 2.086900
-1.123810 -0.014161 2.086900
-1.131380 -0.014161 2.089920
-1.136510 -0.014161 2.088990
-1.139680 -0.014161 2.083890
-1.146030 -0.014161 2.084820
-0.868191 -0.020020 2.101980
-0.873318 -0.020020 2.100820
-0.878689 -0.020020 2.099890
-0.883572 -0.020020 2.097810
-0.888699 -0.020020 2.096880
-0.893826 -0.020020 2.095950
-0.900418 -0.020020 2.097810
-0.907010 -0.020020 2.099890
-0.912625 -0.020020 2.099890
-0.916532 -0.020020 2.095950
-0.921415 -0.020020 2.093860
-0.980987 -0.020020 2.099890
-0.988067 -0.020020 2.102910
-0.993927 -0.020020 2.102910
-0.998566 -0.020020 2.100820
-1.004430 -0.020020 2.100820
-1.008580 -0.020020 2.097810
-1.013460 -0.020020 2.095950
-1.020050 -0.020020 2.097810
-1.027380 -0.020020 2.100820
-1.032500 -0.020020 2.099890
-1.040310 -0.020020 2.103840
-1.042020 -0.020020 2.095950
-1.047880 -0.020020 2.095950
-1.052520 -0.020020 2.093860
-1.061310 -0.020020 2.099890
-1.066190 -0.020020 2.097810
-1.069370 -0.020020 2.092930
-1.072050 -0.019776 2.086900
-1.078160 -0.020020 2.087830
-1.091830 -0.020020 2.091780
-1.099150 -0.020020 2.094790
-1.104530 -0.020020 2.093860
-1.109650 -0.020020 2.092930
-1.113320 -0.020020 2.088990
-1.125520 -0.020020 2.089920
-1.132360 -0.020020 2.091780
-1.137730 -0.020020 2.090850
-1.140660 -0.020020 2.085980
-1.145050 -0.019776 2.082960
-1.150180 -0.019776 2.081800
-0.861110 -0.025635 2.098970
-0.868191 -0.025635 2.101980
-0.871364 -0.025635 2.095950
-0.876980 -0.025635 2.095950
-0.883084 -0.025635 2.096880
-0.889187 -0.025635 2.097810
-0.893826 -0.025635 2.095950
-0.899930 -0.025635 2.096880
-0.906034 -0.025635 2.097810
-0.911893 -0.025635 2.097810
-0.915311 -0.025635 2.092930
-0.920194 -0.025635 2.090850
-0.925810 -0.025635 2.090850
-0.932646 -0.025635 2.093860
-0.938017 -0.025635 2.092930
-0.979034 -0.025635 2.095950
-0.984405 -0.025635 2.094790
-0.990997 -0.025635 2.096880
-0.999054 -0.025635 2.101980
-1.005890 -0.025635 2.103840
-1.011510 -0.025635 2.103840
-1.013460 -0.025635 2.095950
-1.019070 -0.025635 2.095950
-1.042510 -0.025635 2.096880
-1.047400 -0.025635 2.094790
-1.052030 -0.025635 2.092930
-1.061800 -0.025635 2.100820
-1.065460 -0.025635 2.096880
-1.068880 -0.025635 2.091780
-1.070350 -0.025391 2.083890
-1.085480 -0.025635 2.090850
-1.092320 -0.025635 2.092930
-1.099150 -0.025635 2.094790
-1.104530 -0.025635 2.093860
-1.131870 -0.025635 2.090850
-1.138220 -0.025635 2.091780
-1.141880 -0.025635 2.087830
-1.146030 -0.025635 2.084820
-1.151890 -0.025635 2.084820
-1.156530 -0.025635 2.082960
-0.857692 -0.031495 2.103840
-0.862575 -0.031495 2.101980
-0.867702 -0.031251 2.100820
-0.872097 -0.031251 2.097810
-0.878689 -0.031251 2.099890
-0.885525 -0.031495 2.102910
-0.891629 -0.031495 2.103840
-0.896023 -0.031251 2.100820
-0.902127 -0.031251 2.101980
-0.907010 -0.031251 2.099890
-0.912625 -0.031251 2.099890
-0.916532 -0.031251 2.095950
-0.929228 -0.031251 2.098970
-0.934599 -0.031251 2.097810
-0.938749 -0.031251 2.094790
-0.944609 -0.031251 2.094790
-0.949736 -0.031251 2.093860
-0.956328 -0.031251 2.095950
-0.961699 -0.031251 2.094790
-0.967803 -0.031251 2.095950
-0.971465 -0.031251 2.091780
-0.977325 -0.031251 2.091780
-0.983428 -0.031251 2.092930
-0.990997 -0.031251 2.096880
-0.998566 -0.031251 2.100820
-1.005400 -0.031495 2.102910
-1.012970 -0.031495 2.106850
-1.016880 -0.031495 2.102910
-1.021520 -0.031495 2.100820
-1.048130 -0.031251 2.084820
-1.056670 -0.031251 2.090850
-1.064490 -0.031251 2.094790
-1.092810 -0.031251 2.093860
-1.097690 -0.031251 2.091780
-1.101840 -0.031251 2.088990
-1.131380 -0.031251 2.089920
-1.137730 -0.031251 2.090850
-1.140900 -0.031251 2.085980
-1.146030 -0.031251 2.084820
-1.152380 -0.031251 2.085980
-0.858425 -0.037111 2.105920
-0.862819 -0.037111 2.102910
-0.867702 -0.037111 2.100820
-0.873074 -0.037111 2.099890
-0.878933 -0.037111 2.100820
-0.885525 -0.037111 2.102910
-0.891140 -0.037111 2.102910
-0.896512 -0.037111 2.101980
-0.902127 -0.037111 2.101980
-0.906522 -0.037111 2.098970
-0.911405 -0.036866 2.096880
-0.918241 -0.037111 2.099890
-0.924833 -0.037111 2.101980
-0.932401 -0.037111 2.105920
-0.936796 -0.037111 2.102910
-0.941435 -0.037111 2.100820
-0.946318 -0.037111 2.098970
-0.951201 -0.036866 2.096880
-0.957793 -0.037111 2.098970
-0.961211 -0.036866 2.093860
-0.968291 -0.036866 2.096880
-0.971465 -0.036866 2.091780
-0.979034 -0.036866 2.095950
-0.983917 -0.036866 2.093860
-1.011990 -0.037111 2.105000
-1.016880 -0.037111 2.102910
-1.021030 -0.037111 2.099890
-1.050570 -0.036866 2.089920
-1.058380 -0.036866 2.093860
-1.066190 -0.037111 2.097810
-1.094520 -0.036866 2.085980
-1.097690 -0.036866 2.080870
-1.131870 -0.036866 2.090850
-1.137240 -0.036866 2.089920
-1.159950 -0.036866 2.088990
-0.858913 -0.042726 2.106850
-0.862819 -0.042726 2.102910
-0.868435 -0.042726 2.102910
-0.886013 -0.042726 2.103840
-0.890896 -0.042726 2.101980
-0.896023 -0.042726 2.100820
-0.901639 -0.042726 2.100820
-0.907743 -0.042726 2.101980
-0.912137 -0.042726 2.098970
-0.918729 -0.042726 2.100820
-0.924100 -0.042726 2.099890
-0.930937 -0.042726 2.102910
-0.942900 -0.042726 2.103840
-0.947783 -0.042726 2.101980
-0.951689 -0.042726 2.097810
-0.959014 -0.042726 2.101980
-0.962920 -0.042726 2.097810
-0.970489 -0.042726 2.101980
-0.972442 -0.042482 2.093860
-0.980010 -0.042726 2.097810
-0.985382 -0.042726 2.096880
-1.011020 -0.042726 2.102910
-1.018830 -0.042970 2.106850
-1.022980 -0.042726 2.103840
-1.051550 -0.042482 2.091780
-1.066190 -0.042726 2.097810
-1.098180 -0.042482 2.081800
-0.857692 -0.048586 2.103840
-0.862575 -0.048341 2.101980
-0.867214 -0.048341 2.099890
-0.871364 -0.048341 2.095950
-0.895535 -0.048341 2.099890
-0.901395 -0.048341 2.099890
-0.907010 -0.048341 2.099890
-0.911893 -0.048341 2.097810
-0.917508 -0.048341 2.097810
-0.936796 -0.048341 2.102910
-0.943388 -0.048586 2.105000
-0.948515 -0.048586 2.103840
-0.951689 -0.048341 2.097810
-0.957793 -0.048341 2.098970
-0.962920 -0.048341 2.097810
-0.970977 -0.048341 2.102910
-0.974883 -0.048341 2.098970
-0.981475 -0.048341 2.100820
-0.985870 -0.048341 2.097810
-0.992950 -0.048341 2.100820
-0.997589 -0.048341 2.098970
-1.053500 -0.048341 2.095950
-1.059360 -0.048341 2.095950
-1.065710 -0.048341 2.096880
-1.070350 -0.048341 2.094790
-1.100860 -0.048097 2.086900
-0.857692 -0.054201 2.103840
-0.862819 -0.054201 2.102910
-0.870876 -0.053957 2.094790
-0.875759 -0.053957 2.092930
-0.897244 -0.054201 2.103840
-0.903104 -0.054201 2.103840
-0.907743 -0.054201 2.101980
-0.911405 -0.053957 2.096880
-0.915799 -0.053957 2.093860
-0.921903 -0.053957 2.094790
-0.937284 -0.054201 2.103840
-0.942412 -0.054201 2.102910
-0.946806 -0.053957 2.099890
-0.950224 -0.053957 2.094790
-0.955840 -0.053957 2.094790
-0.962920 -0.053957 2.097810
-0.970977 -0.054201 2.102910
-0.975372 -0.053957 2.099890
-0.981475 -0.054201 2.100820
-0.987091 -0.054201 2.100820
-1.102330 -0.053957 2.089920
-0.858425 -0.059816 2.105920
-0.874783 -0.059572 2.090850
-0.898221 -0.059816 2.105920
-0.903836 -0.059816 2.105920
-0.908231 -0.059816 2.102910
-0.913114 -0.059816 2.100820
-0.918241 -0.059816 2.099890
-0.924100 -0.059816 2.099890
-0.930204 -0.059816 2.100820
-0.936308 -0.059816 2.101980
-0.940703 -0.059816 2.098970
-0.945830 -0.059572 2.097810
-0.950224 -0.059572 2.094790
-0.955351 -0.059572 2.093860
-0.962432 -0.059572 2.096880
-0.970000 -0.059816 2.100820
-0.975860 -0.059816 2.100820
-0.980499 -0.059816 2.098970
-0.985382 -0.059572 2.096880
-1.102330 -0.059572 2.089920
-0.889920 -0.065432 2.099890
-0.896512 -0.065432 2.101980
-0.902615 -0.065432 2.102910
-0.909207 -0.065676 2.105000
-0.914823 -0.065676 2.105000
-0.919218 -0.065432 2.101980
-0.924100 -0.065432 2.099890
-0.929228 -0.065432 2.098970
-0.935820 -0.065432 2.100820
-0.939726 -0.065187 2.096880
-0.946318 -0.065432 2.098970
-0.951201 -0.065432 2.096880
-0.956816 -0.065432 2.096880
-0.962432 -0.065432 2.096880
-0.969512 -0.065432 2.099890
-0.973907 -0.065432 2.096880
-0.979522 -0.065432 2.096880
-0.983428 -0.065187 2.092930
-0.990509 -0.065187 2.095950
-0.995392 -0.065187 2.093860
-1.101840 -0.065187 2.088990
-0.894314 -0.071047 2.096880
-0.901395 -0.071047 2.099890
-0.908719 -0.071291 2.103840
-0.916532 -0.071291 2.108940
-0.921415 -0.071291 2.106850
-0.925321 -0.071291 2.102910
-0.929228 -0.071047 2.098970
-0.934599 -0.071047 2.097810
-0.939238 -0.071047 2.095950
-0.945830 -0.071047 2.097810
-0.951689 -0.071047 2.097810
-0.957305 -0.071047 2.097810
-0.962920 -0.071047 2.097810
-0.969024 -0.071047 2.098970
-0.975372 -0.071047 2.099890
-0.980987 -0.071047 2.099890
-0.983428 -0.070803 2.092930
-0.988311 -0.070803 2.090850
-0.992462 -0.070803 2.087830
-0.999542 -0.070803 2.090850
-1.007110 -0.071047 2.094790
-1.097690 -0.070803 2.091780
-0.899686 -0.076663 2.095950
-0.907010 -0.076663 2.099890
-0.914335 -0.076907 2.103840
-0.920194 -0.076907 2.103840
-0.925321 -0.076907 2.102910
-0.930692 -0.076907 2.101980
-0.935331 -0.076663 2.099890
-0.939726 -0.076663 2.096880
-0.945097 -0.076663 2.095950
-0.951201 -0.076663 2.096880
-0.957793 -0.076663 2.098970
-0.962920 -0.076663 2.097810
-0.969024 -0.076663 2.098970
-0.974395 -0.076663 2.097810
-0.981475 -0.076907 2.100820
-0.985870 -0.076663 2.097810
-0.990020 -0.076663 2.094790
-0.993439 -0.076418 2.089920
-1.000030 -0.076418 2.091780
-1.093540 -0.076663 2.094790
-0.917508 -0.082278 2.097810
-0.924589 -0.082522 2.100820
-0.930937 -0.082522 2.102910
-0.935087 -0.082278 2.098970
-0.940214 -0.082278 2.097810
-0.945341 -0.082278 2.096880
-0.951933 -0.082278 2.098970
-0.957793 -0.082278 2.098970
-0.963897 -0.082522 2.099890
-0.968780 -0.082278 2.097810
-0.975372 -0.082522 2.099890
-0.980499 -0.082522 2.098970
-0.916532 -0.087893 2.095950
