0.741722 0.572039 3.736930
0.730979 0.571795 3.733920
0.720481 0.571306 3.730900
0.678976 0.570574 3.724870
0.669698 0.571306 3.729970
0.660909 0.572283 3.736930
0.649922 0.571551 3.731830
0.638203 0.570086 3.721850
0.628193 0.570330 3.722780
0.618671 0.570818 3.725800
0.608173 0.570574 3.723940
0.596698 0.569109 3.714900
2.164620 0.571062 3.789810
2.096990 0.572283 3.802800
2.043280 0.565935 3.762910
2.042540 0.568621 3.781000
1.717580 0.566179 3.776820
1.706350 0.565935 3.774970
1.693900 0.565203 3.769870
1.684130 0.565203 3.770790
1.623100 0.565447 3.771950
1.612840 0.565447 3.771950
1.597950 0.563738 3.760820
1.585250 0.562761 3.754790
1.575730 0.563005 3.756880
1.529590 0.564714 3.767780
1.521290 0.565447 3.772880
1.509570 0.564714 3.768940
1.498580 0.564470 3.766850
1.448040 0.564714 3.767780
1.437060 0.564470 3.765920
1.425820 0.563982 3.762910
1.413860 0.563250 3.757810
1.405560 0.563982 3.762910
1.396280 0.564226 3.765000
1.386270 0.564470 3.765920
1.375040 0.563982 3.762910
1.364300 0.563738 3.760820
1.355510 0.564470 3.765000
1.344770 0.563982 3.762910
1.336470 0.564959 3.767780
1.325240 0.564470 3.765000
1.315470 0.564714 3.765920
1.303510 0.563982 3.760820
1.293500 0.563982 3.760820
1.282020 0.563250 3.756880
1.271770 0.563250 3.756880
1.260290 0.562761 3.752930
1.250280 0.562761 3.752930
1.239780 0.562761 3.751770
1.231730 0.563494 3.757810
1.221230 0.563494 3.756880
1.210730 0.563250 3.755950
1.200720 0.563250 3.755950
1.192180 0.564226 3.760820
1.182650 0.564470 3.762910
1.171670 0.563982 3.759890
1.161660 0.563982 3.759890
1.151400 0.563982 3.759890
1.142120 0.564470 3.762910
1.132110 0.564714 3.762910
1.120880 0.563982 3.758970
1.109900 0.563738 3.755950
1.098180 0.563005 3.750850
1.087190 0.562517 3.747830
1.077180 0.562517 3.747830
1.067660 0.562761 3.749920
1.057890 0.563005 3.750850
1.048130 0.563250 3.751770
1.037630 0.563005 3.750850
1.027860 0.563250 3.751770
1.018100 0.563494 3.752930
1.008580 0.563738 3.754790
0.996857 0.563005 3.748990
0.985626 0.562273 3.744820
0.974151 0.561541 3.739950
0.965361 0.562517 3.744820
0.956084 0.563005 3.747830
0.946806 0.563494 3.750850
0.936552 0.563250 3.749920
0.926298 0.563250 3.749920
0.915799 0.563005 3.747830
0.905057 0.562761 3.745980
0.894314 0.562273 3.742960
0.884060 0.562273 3.741800
0.873806 0.562029 3.740870
0.862331 0.561296 3.734840
0.852077 0.561052 3.733920
0.841823 0.561296 3.733920
0.832301 0.561541 3.735770
0.822047 0.561541 3.734840
0.810572 0.560564 3.728810
0.800073 0.560320 3.726960
0.789087 0.559832 3.722780
0.779077 0.559832 3.722780
0.770043 0.560564 3.727880
0.761010 0.561296 3.732990
0.751244 0.561541 3.733920
0.740989 0.561296 3.732990
0.731468 0.561785 3.735770
0.721458 0.562029 3.735770
0.711447 0.562029 3.736930
0.701193 0.562029 3.735770
0.690695 0.561785 3.733920
0.679464 0.560808 3.727880
0.670186 0.561541 3.731830
0.660909 0.562029 3.735770
0.649922 0.561296 3.730900
0.638203 0.560076 3.721850
0.627949 0.560076 3.720930
0.618671 0.560808 3.725800
0.609149 0.561296 3.728810
0.597674 0.560076 3.720930
2.172430 0.560076 3.784940
2.166810 0.561296 3.793990
2.155580 0.561052 3.792830
2.100410 0.560076 3.789810
2.042790 0.558367 3.781930
1.726860 0.555681 3.774970
1.718560 0.556413 3.778910
1.706350 0.555681 3.774970
1.693900 0.554949 3.769870
1.682670 0.554704 3.767780
1.672410 0.554704 3.767780
1.660940 0.554216 3.765000
1.653610 0.555193 3.771950
1.644340 0.555437 3.773810
1.636280 0.556169 3.778910
1.623830 0.555437 3.773810
1.611870 0.554949 3.769870
1.598190 0.553728 3.761980
1.585500 0.552751 3.755950
1.576220 0.552995 3.757810
1.566450 0.553240 3.758970
1.557660 0.553728 3.761980
1.545700 0.552995 3.757810
1.536420 0.553240 3.759890
1.528610 0.554216 3.765920
1.519580 0.554704 3.768940
1.508350 0.554216 3.765920
1.495650 0.553240 3.759890
1.485890 0.553484 3.760820
1.477340 0.553972 3.765000
1.468310 0.554460 3.767780
1.446580 0.553972 3.763840
1.435590 0.553728 3.761980
1.425090 0.553484 3.760820
1.414110 0.553240 3.758970
1.403610 0.552995 3.757810
1.395060 0.553728 3.761980
1.385050 0.553728 3.761980
1.375290 0.553972 3.762910
1.364060 0.553484 3.759890
1.356240 0.554460 3.766850
1.346480 0.554704 3.767780
1.338180 0.555437 3.772880
1.326210 0.554704 3.767780
1.315710 0.554460 3.766850
1.303990 0.553972 3.761980
1.293740 0.553972 3.761980
1.283970 0.553972 3.762910
1.274210 0.554216 3.763840
1.262730 0.553728 3.759890
1.251990 0.553484 3.757810
1.240270 0.552751 3.752930
1.232460 0.553728 3.759890
1.220740 0.552995 3.754790
1.211460 0.553484 3.757810
1.202430 0.553972 3.760820
1.192910 0.554216 3.762910
1.182650 0.554216 3.762910
1.172640 0.554216 3.762910
1.163370 0.554704 3.765920
1.153840 0.555193 3.767780
1.142370 0.554460 3.762910
1.118930 0.552995 3.752930
1.107940 0.552507 3.749920
1.097690 0.552507 3.748990
1.086700 0.552019 3.745980
1.077430 0.552507 3.748990
1.067660 0.552751 3.749920
1.057650 0.552751 3.749920
1.046660 0.552263 3.746900
1.037630 0.552995 3.750850
1.027860 0.553240 3.751770
1.018590 0.553728 3.754790
1.006870 0.552751 3.748990
0.997101 0.552995 3.749920
0.985870 0.552507 3.745980
0.974883 0.551775 3.741800
0.964629 0.551775 3.741800
0.955351 0.552263 3.744820
0.946074 0.552751 3.747830
0.936064 0.552751 3.747830
0.925810 0.552995 3.747830
0.915067 0.552507 3.744820
0.904569 0.552263 3.742960
0.892850 0.551286 3.735770
0.883084 0.551530 3.737860
0.873074 0.551530 3.737860
0.862819 0.551530 3.736930
0.851833 0.551042 3.732990
0.841334 0.550554 3.730900
0.831324 0.550798 3.731830
0.821802 0.551286 3.733920
0.811060 0.550798 3.730900
0.800562 0.550554 3.728810
0.789575 0.550066 3.724870
0.779565 0.550066 3.724870
0.771020 0.551042 3.731830
0.761010 0.551042 3.731830
0.750755 0.551042 3.730900
0.740013 0.550554 3.727880
0.730735 0.551286 3.731830
0.720969 0.551530 3.733920
0.711447 0.552019 3.736930
0.701682 0.552263 3.737860
0.691183 0.552019 3.735770
0.680197 0.551286 3.730900
0.669942 0.551042 3.729970
0.659688 0.551042 3.728810
0.648457 0.550066 3.722780
0.637226 0.549089 3.715820
0.626972 0.549089 3.714900
0.618183 0.550310 3.722780
0.608905 0.551042 3.727880
0.598651 0.550798 3.726960
0.586688 0.549089 3.714900
2.155340 0.550798 3.792830
2.148750 0.551530 3.799790
2.037900 0.546892 3.772880
2.027890 0.546892 3.773810
2.020080 0.547624 3.778910
1.726370 0.545427 3.773810
1.714410 0.544694 3.769870
1.703670 0.544694 3.768940
1.691950 0.544206 3.765920
1.682670 0.544450 3.767780
1.672900 0.544694 3.768940
1.661430 0.544206 3.765920
1.653370 0.544939 3.770790
1.644340 0.545183 3.773810
1.637500 0.546403 3.781930
1.624320 0.545427 3.774970
1.612350 0.544694 3.770790
1.599900 0.543962 3.765920
1.588430 0.543718 3.762910
1.576220 0.542985 3.757810
1.528610 0.543962 3.765920
1.517620 0.543718 3.763840
1.505170 0.542985 3.757810
1.491500 0.541520 3.748990
1.482960 0.542253 3.752930
1.475390 0.543229 3.759890
1.468790 0.544450 3.768940
1.457810 0.544206 3.766850
1.435350 0.543229 3.760820
1.426310 0.543718 3.763840
1.415080 0.543474 3.760820
1.404830 0.543474 3.760820
1.393110 0.542741 3.756880
1.384560 0.543474 3.760820
1.374070 0.543229 3.759890
1.362830 0.542741 3.756880
1.354530 0.543718 3.761980
1.345500 0.543962 3.765000
1.338180 0.545183 3.772880
1.326940 0.544694 3.769870
1.315470 0.544206 3.765920
1.303990 0.543718 3.761980
1.292520 0.543229 3.757810
1.283240 0.543474 3.760820
1.273480 0.543718 3.761980
1.261760 0.542985 3.756880
1.251260 0.542985 3.755950
1.240760 0.542741 3.754790
1.232460 0.543474 3.759890
1.220980 0.542985 3.755950
1.211950 0.543474 3.758970
1.202430 0.543718 3.760820
1.191690 0.543474 3.758970
1.181190 0.543474 3.757810
1.172640 0.544206 3.762910
1.164340 0.544939 3.768940
1.141150 0.543718 3.758970
1.119910 0.543229 3.755950
1.108920 0.542985 3.752930
1.098420 0.542741 3.750850
1.086700 0.542009 3.745980
1.078400 0.542741 3.751770
1.068390 0.542741 3.751770
1.059110 0.543229 3.754790
1.047880 0.542741 3.750850
1.038850 0.543474 3.754790
1.029820 0.543962 3.758970
1.019560 0.543962 3.757810
1.007350 0.542985 3.750850
0.996124 0.542253 3.745980
0.985382 0.542009 3.743890
0.974395 0.541520 3.739950
0.964385 0.541520 3.740870
0.954131 0.541520 3.739950
0.945341 0.542253 3.744820
0.934355 0.541765 3.740870
0.924589 0.542009 3.742960
0.913114 0.541276 3.736930
0.903348 0.541276 3.737860
0.892605 0.541032 3.734840
0.882595 0.541276 3.735770
0.873562 0.541765 3.739950
0.863796 0.542009 3.740870
0.853053 0.541765 3.738790
0.843043 0.541765 3.738790
0.832301 0.541276 3.735770
0.823023 0.541765 3.738790
0.812281 0.541520 3.735770
0.802759 0.541765 3.738790
0.792261 0.541520 3.736930
0.782006 0.541520 3.735770
0.772729 0.542009 3.739950
0.761742 0.541520 3.735770
0.751488 0.541520 3.734840
0.740989 0.541276 3.732990
0.730735 0.541032 3.731830
0.720969 0.541276 3.732990
0.711692 0.542009 3.737860
0.702414 0.542741 3.741800
0.692160 0.542741 3.741800
0.681173 0.542009 3.736930
0.669942 0.541032 3.729970
0.658956 0.540300 3.724870
0.648701 0.540300 3.723940
0.638447 0.540056 3.722780
0.628437 0.540300 3.723940
0.617939 0.539811 3.720930
0.608417 0.540300 3.723940
0.597919 0.539811 3.720930
2.034730 0.535661 3.766850
2.023010 0.535417 3.765000
2.012510 0.535173 3.765000
2.002500 0.535417 3.765920
1.992000 0.535173 3.765920
1.979550 0.534684 3.761980
1.968080 0.534196 3.759890
1.960260 0.534928 3.765000
1.951230 0.535417 3.767780
1.723690 0.534440 3.767780
1.713430 0.534440 3.767780
1.703670 0.534440 3.768940
1.692920 0.534196 3.767780
1.682670 0.534196 3.767780
1.671930 0.534196 3.766850
1.660450 0.533708 3.763840
1.651420 0.533952 3.766850
1.642630 0.534440 3.769870
1.635790 0.535661 3.777980
1.622610 0.534684 3.770790
1.611130 0.534196 3.767780
1.599660 0.533708 3.765000
1.591110 0.534196 3.768940
1.579150 0.533708 3.765000
1.568650 0.533464 3.763840
1.557910 0.533464 3.762910
1.549120 0.533952 3.765920
1.518850 0.533952 3.766850
1.505910 0.532975 3.759890
1.492230 0.531754 3.750850
1.482960 0.531999 3.752930
1.475390 0.532975 3.759890
1.466840 0.533708 3.763840
1.457080 0.533708 3.765000
1.443890 0.532487 3.756880
1.433390 0.532487 3.755950
1.424120 0.532731 3.757810
1.415080 0.533219 3.760820
1.403360 0.532731 3.756880
1.392130 0.532243 3.753860
1.383590 0.532731 3.757810
1.373820 0.532975 3.758970
1.361860 0.532243 3.753860
1.352090 0.532487 3.754790
1.343790 0.533219 3.759890
1.335000 0.533708 3.763840
1.323530 0.533219 3.759890
1.312780 0.532975 3.757810
1.301800 0.532731 3.755950
1.291050 0.532487 3.753860
1.282750 0.533219 3.758970
1.272260 0.532975 3.757810
1.261020 0.532731 3.754790
1.251990 0.532975 3.757810
1.242960 0.533464 3.760820
1.233440 0.533708 3.762910
1.220740 0.532731 3.754790
1.211220 0.532975 3.756880
1.203160 0.533952 3.762910
1.191930 0.533464 3.759890
1.181680 0.533464 3.758970
1.172640 0.533952 3.762910
1.165560 0.535417 3.772880
1.156770 0.536149 3.776820
1.143350 0.534440 3.765920
1.130890 0.533464 3.758970
1.118930 0.532487 3.751770
1.107460 0.531999 3.747830
1.097200 0.531999 3.746900
1.088170 0.532487 3.750850
1.079870 0.533464 3.756880
1.069370 0.533219 3.755950
1.059850 0.533708 3.757810
1.048370 0.532975 3.752930
1.039090 0.533464 3.755950
1.028840 0.533219 3.754790
1.018590 0.533219 3.754790
1.006130 0.531999 3.745980
0.995880 0.531999 3.744820
0.984893 0.531510 3.741800
0.975127 0.531754 3.742960
0.965117 0.531754 3.742960
0.954619 0.531754 3.741800
0.944121 0.531510 3.739950
0.933622 0.531266 3.737860
0.923856 0.531266 3.738790
0.913602 0.531266 3.738790
0.902860 0.531022 3.735770
0.892605 0.530778 3.734840
0.882595 0.531022 3.734840
0.873318 0.531510 3.738790
0.864040 0.531999 3.741800
0.852809 0.531266 3.736930
0.842555 0.531266 3.736930
0.832789 0.531510 3.737860
0.824244 0.532487 3.744820
0.813257 0.531999 3.740870
0.803247 0.531999 3.740870
0.792993 0.531999 3.739950
0.783227 0.532243 3.741800
0.773461 0.532487 3.742960
0.761742 0.531510 3.735770
0.751732 0.531510 3.735770
0.741722 0.531754 3.736930
0.730491 0.530778 3.730900
0.719993 0.530534 3.727880
0.709494 0.530290 3.725800
0.701193 0.531510 3.734840
0.691183 0.531754 3.735770
0.681173 0.531754 3.736930
0.670186 0.531022 3.730900
0.659200 0.530534 3.726960
0.649190 0.530534 3.726960
0.639668 0.531022 3.729970
0.629414 0.530778 3.728810
0.618183 0.530045 3.721850
0.607929 0.529801 3.720930
0.597186 0.529313 3.716980
2.025210 0.525651 3.768940
2.012510 0.525163 3.765000
1.725390 0.524674 3.771950
1.716120 0.524918 3.773810
1.706840 0.525163 3.775900
1.695610 0.524918 3.773810
1.684380 0.524674 3.771950
1.673640 0.524430 3.770790
1.660450 0.523453 3.763840
1.649710 0.523209 3.762910
1.638970 0.523209 3.761980
1.630660 0.523698 3.765920
1.620410 0.523698 3.765920
1.610160 0.523698 3.765920
1.599660 0.523453 3.765000
1.589890 0.523698 3.765920
1.579150 0.523453 3.765000
1.567670 0.523209 3.761980
1.559620 0.523698 3.766850
1.550340 0.524186 3.768940
1.540090 0.524186 3.768940
1.527390 0.523209 3.762910
1.517380 0.523209 3.762910
1.506390 0.522965 3.760820
1.495410 0.522721 3.758970
1.486370 0.523209 3.761980
1.476360 0.523209 3.761980
1.465380 0.522965 3.759890
1.454880 0.522721 3.758970
1.443890 0.522477 3.756880
1.434130 0.522721 3.757810
1.425580 0.523209 3.761980
1.417280 0.523942 3.766850
1.406050 0.523453 3.763840
1.394090 0.522721 3.758970
1.385050 0.523209 3.761980
1.372600 0.522477 3.755950
1.361370 0.521989 3.752930
1.351360 0.521989 3.752930
1.343300 0.522965 3.758970
1.335000 0.523698 3.763840
1.324260 0.523209 3.761980
1.312780 0.522721 3.757810
1.301550 0.522477 3.754790
1.291540 0.522477 3.754790
1.282750 0.522965 3.758970
1.273230 0.523209 3.760820
1.261760 0.522721 3.756880
1.252970 0.523209 3.760820
1.243930 0.523698 3.763840
1.234410 0.524186 3.765920
1.221470 0.522965 3.756880
1.210000 0.522233 3.752930
1.200230 0.522477 3.753860
1.192420 0.523453 3.760820
1.181680 0.523209 3.758970
1.171670 0.523453 3.759890
1.161900 0.523453 3.760820
1.153600 0.524430 3.766850
1.142120 0.523698 3.761980
1.131630 0.523698 3.760820
1.119420 0.522721 3.753860
1.108430 0.522233 3.750850
1.097200 0.521744 3.746900
1.088660 0.522477 3.751770
1.079620 0.523209 3.755950
1.070100 0.523453 3.757810
1.060090 0.523453 3.757810
1.049840 0.523453 3.757810
1.037870 0.522477 3.750850
1.028350 0.522965 3.752930
1.017610 0.522721 3.750850
1.006620 0.522233 3.747830
0.996124 0.521989 3.745980
0.985382 0.521744 3.743890
0.976104 0.522233 3.746900
0.965606 0.521989 3.744820
0.955351 0.521744 3.743890
0.944609 0.521500 3.741800
0.934843 0.521744 3.742960
0.925565 0.522233 3.745980
0.914335 0.521744 3.741800
0.902860 0.520768 3.735770
0.893338 0.521256 3.737860
0.883328 0.521256 3.737860
0.874538 0.521989 3.743890
0.863552 0.521500 3.739950
0.853786 0.521744 3.740870
0.843532 0.521744 3.740870
0.833522 0.521744 3.740870
0.824000 0.522233 3.743890
0.812769 0.521500 3.737860
0.802515 0.521500 3.737860
0.792016 0.521256 3.735770
0.783471 0.522233 3.742960
0.773705 0.522477 3.743890
0.762963 0.522233 3.741800
0.752464 0.521989 3.739950
0.742210 0.521744 3.738790
0.731468 0.521500 3.735770
0.720969 0.521012 3.732990
0.710715 0.521012 3.731830
0.701437 0.521744 3.736930
0.691671 0.521989 3.738790
0.682150 0.522477 3.741800
0.670919 0.521744 3.735770
0.660421 0.521256 3.732990
0.650166 0.521256 3.731830
0.640645 0.521500 3.734840
0.629902 0.521256 3.731830
0.618427 0.520035 3.723940
0.608173 0.520035 3.722780
0.597919 0.519791 3.720930
1.728570 0.515397 3.778910
1.719780 0.515885 3.781930
1.708550 0.515641 3.779840
1.696830 0.515152 3.776820
1.685840 0.514908 3.774970
1.675830 0.514908 3.775900
1.663140 0.514176 3.769870
1.651910 0.513932 3.767780
1.638230 0.512711 3.759890
1.627980 0.512711 3.759890
1.618210 0.512955 3.760820
1.609670 0.513443 3.765000
1.599660 0.513443 3.765000
1.588920 0.513199 3.763840
1.580130 0.513688 3.766850
1.569870 0.513688 3.766850
1.561330 0.514176 3.770790
1.551560 0.514420 3.771950
1.540820 0.514176 3.770790
1.528610 0.513443 3.765920
1.518110 0.513443 3.765000
1.507610 0.513199 3.763840
1.497360 0.513199 3.763840
1.487110 0.513199 3.763840
1.475390 0.512711 3.759890
1.463670 0.512223 3.755950
1.455120 0.512711 3.759890
1.443890 0.512223 3.756880
1.434610 0.512467 3.758970
1.422890 0.511979 3.754790
1.415330 0.512955 3.761980
1.404580 0.512711 3.759890
1.395060 0.512955 3.761980
1.385050 0.512955 3.761980
1.374070 0.512711 3.759890
1.363320 0.512467 3.757810
1.352820 0.512467 3.756880
1.344520 0.513199 3.761980
1.335490 0.513443 3.765000
1.325240 0.513688 3.765000
1.313760 0.512955 3.760820
1.301310 0.512223 3.753860
1.292030 0.512467 3.756880
1.282270 0.512711 3.757810
1.274210 0.513443 3.763840
1.263710 0.513443 3.762910
1.255650 0.514176 3.768940
1.244180 0.513688 3.765000
1.234170 0.513688 3.765000
1.221720 0.512711 3.757810
1.211710 0.512955 3.757810
1.201210 0.512711 3.756880
1.191930 0.513199 3.759890
1.180700 0.512711 3.755950
1.170200 0.512467 3.754790
1.160190 0.512467 3.754790
1.152620 0.513688 3.762910
1.142610 0.513932 3.763840
1.131630 0.513443 3.760820
1.119170 0.512467 3.752930
1.107940 0.511979 3.748990
1.098180 0.511979 3.749920
1.090120 0.512955 3.756880
1.080600 0.513443 3.758970
1.070100 0.513199 3.757810
1.059600 0.513199 3.756880
1.050810 0.513688 3.760820
1.038610 0.512711 3.753860
1.028110 0.512467 3.751770
1.016630 0.511979 3.746900
1.007600 0.512467 3.750850
0.996857 0.512223 3.748990
0.986358 0.511979 3.746900
0.976592 0.512223 3.747830
0.966338 0.512223 3.747830
0.956328 0.512223 3.747830
0.945097 0.511734 3.743890
0.935331 0.511979 3.744820
0.925565 0.511979 3.745980
0.916044 0.512467 3.747830
0.904080 0.511490 3.740870
0.894314 0.511734 3.741800
0.884548 0.511734 3.742960
0.873806 0.511490 3.740870
0.862087 0.510514 3.733920
0.851833 0.510514 3.732990
0.842555 0.511002 3.735770
0.833033 0.511490 3.738790
0.822535 0.511246 3.736930
0.811548 0.510758 3.732990
0.801294 0.510514 3.731830
0.792016 0.511002 3.734840
0.782983 0.511979 3.740870
0.773461 0.512223 3.742960
0.761986 0.511246 3.735770
0.750999 0.510758 3.731830
0.740745 0.510514 3.730900
0.731712 0.511246 3.735770
0.721213 0.511002 3.733920
0.710959 0.511002 3.732990
0.701193 0.511246 3.734840
0.690939 0.511246 3.733920
0.680929 0.511246 3.734840
0.670431 0.511246 3.732990
0.660665 0.511490 3.734840
0.650899 0.511490 3.735770
0.640156 0.511246 3.732990
0.628925 0.510269 3.725800
0.618671 0.510269 3.724870
0.609394 0.511002 3.729970
0.599139 0.510758 3.728810
1.728080 0.505142 3.777980
1.717830 0.505142 3.777980
1.707570 0.505142 3.777980
1.697810 0.505142 3.778910
1.689750 0.505875 3.783780
1.680470 0.506119 3.785870
1.667530 0.505142 3.779840
1.655080 0.504654 3.774970
1.642870 0.503922 3.770790
1.631400 0.503677 3.767780
1.620410 0.503433 3.765920
1.609670 0.503189 3.765000
1.599170 0.502945 3.763840
1.588180 0.502701 3.761980
1.579150 0.503189 3.765000
1.569870 0.503433 3.766850
1.563040 0.504410 3.774970
1.553030 0.504654 3.775900
1.542530 0.504410 3.774970
1.529100 0.503433 3.766850
1.516890 0.502701 3.761980
1.505420 0.502457 3.758970
1.495650 0.502457 3.759890
1.486130 0.502701 3.760820
1.475140 0.502457 3.758970
1.463670 0.501968 3.755950
1.454880 0.502457 3.758970
1.444380 0.502213 3.757810
1.434130 0.502213 3.757810
1.422160 0.501724 3.752930
1.413620 0.502213 3.756880
1.403360 0.502213 3.756880
1.394090 0.502457 3.758970
1.385050 0.502945 3.761980
1.375290 0.502945 3.762910
1.364300 0.502701 3.760820
1.353800 0.502701 3.759890
1.345500 0.503433 3.765000
1.336950 0.503922 3.768940
1.327430 0.504166 3.770790
1.315470 0.503433 3.765920
1.303990 0.502945 3.761980
1.294230 0.503189 3.762910
1.285200 0.503677 3.765920
1.275430 0.503677 3.766850
1.265180 0.503677 3.766850
1.255410 0.503922 3.767780
1.243930 0.503433 3.763840
1.233440 0.503433 3.762910
1.221960 0.502701 3.758970
1.213900 0.503677 3.765000
1.201450 0.502701 3.757810
1.193640 0.503677 3.765000
1.181680 0.502945 3.758970
1.159950 0.502213 3.753860
1.150430 0.502701 3.755950
1.139930 0.502457 3.754790
1.129670 0.502457 3.753860
1.118930 0.502213 3.751770
1.109160 0.502213 3.752930
1.099640 0.502701 3.754790
1.090370 0.502945 3.757810
1.079620 0.502701 3.755950
1.068390 0.502213 3.751770
1.058870 0.502701 3.753860
1.049840 0.503189 3.757810
1.038610 0.502701 3.753860
1.028110 0.502457 3.751770
1.016880 0.501968 3.747830
1.008090 0.502701 3.752930
0.998077 0.502701 3.752930
0.987091 0.502213 3.749920
0.976592 0.501968 3.747830
0.965850 0.501724 3.745980
0.956816 0.502457 3.749920
0.946318 0.502213 3.747830
0.936552 0.502457 3.749920
0.926786 0.502701 3.750850
0.917020 0.502701 3.751770
0.906034 0.502457 3.748990
0.895047 0.501968 3.744820
0.884304 0.501480 3.741800
0.873318 0.500992 3.737860
0.862331 0.500504 3.733920
0.852809 0.500992 3.736930
0.844020 0.501724 3.741800
0.834986 0.502457 3.746900
0.822779 0.501236 3.737860
0.812281 0.500992 3.735770
0.802026 0.500748 3.734840
0.792749 0.501480 3.738790
0.783227 0.501724 3.740870
0.772729 0.501480 3.738790
0.761742 0.500992 3.734840
0.750999 0.500748 3.731830
0.740989 0.500748 3.731830
0.731956 0.501480 3.736930
0.721946 0.501480 3.737860
0.712424 0.501968 3.740870
0.701682 0.501480 3.737860
0.690939 0.500992 3.733920
0.680929 0.501236 3.734840
0.671163 0.501480 3.735770
0.661641 0.501968 3.739950
0.651143 0.501724 3.736930
0.640156 0.500992 3.731830
0.628925 0.500259 3.725800
0.618671 0.500015 3.724870
0.609394 0.500748 3.729970
0.598895 0.500504 3.726960
1.727590 0.494644 3.776820
1.717340 0.494644 3.776820
1.666550 0.494888 3.777980
1.656300 0.494644 3.777980
1.645560 0.494644 3.776820
1.636280 0.494888 3.778910
1.621630 0.493667 3.768940
1.608940 0.492691 3.762910
1.598190 0.492691 3.761980
1.590620 0.493423 3.767780
1.579880 0.493179 3.766850
1.571580 0.493667 3.770790
1.562060 0.494156 3.772880
1.553030 0.494400 3.775900
1.541800 0.494156 3.772880
1.529590 0.493423 3.767780
1.518110 0.492935 3.765000
1.505420 0.492203 3.758970
1.494670 0.491958 3.756880
1.483930 0.491958 3.755950
1.474650 0.492203 3.757810
1.464640 0.492203 3.757810
1.456340 0.492691 3.762910
1.446330 0.492691 3.762910
1.435590 0.492691 3.761980
1.423380 0.491958 3.755950
1.413860 0.492203 3.757810
1.403850 0.492203 3.757810
1.393350 0.491958 3.756880
1.383830 0.492447 3.758970
1.374070 0.492447 3.759890
1.366250 0.493179 3.765920
1.355270 0.492935 3.763840
1.345990 0.493423 3.765920
1.336470 0.493667 3.767780
1.326700 0.493667 3.768940
1.316200 0.493667 3.767780
1.304730 0.493179 3.763840
1.294960 0.493179 3.765000
1.284460 0.493179 3.763840
1.273720 0.492935 3.761980
1.262490 0.492447 3.758970
1.253700 0.493179 3.762910
1.244670 0.493423 3.765920
1.234170 0.493423 3.765000
1.223670 0.493423 3.763840
1.214150 0.493667 3.765920
1.203410 0.493423 3.763840
1.193880 0.493667 3.765920
1.181680 0.492691 3.758970
1.172400 0.493179 3.761980
1.161170 0.492691 3.757810
1.151890 0.493179 3.760820
1.140900 0.492691 3.757810
1.128700 0.491958 3.750850
1.118930 0.491958 3.751770
1.108920 0.491958 3.751770
1.100620 0.492935 3.757810
1.090850 0.493179 3.759890
1.079620 0.492691 3.755950
1.068640 0.492203 3.752930
1.059600 0.492691 3.755950
1.051060 0.493423 3.761980
1.040560 0.493423 3.760820
1.028840 0.492691 3.754790
1.018340 0.492447 3.752930
1.008330 0.492691 3.753860
0.997833 0.492447 3.751770
0.986358 0.491714 3.746900
0.976348 0.491714 3.746900
0.967071 0.492203 3.749920
0.958281 0.492935 3.754790
0.947539 0.492691 3.752930
0.937284 0.492447 3.751770
0.926786 0.492447 3.750850
0.917508 0.492935 3.753860
0.906766 0.492691 3.751770
0.895535 0.491958 3.746900
0.884548 0.491470 3.742960
0.873806 0.491226 3.739950
0.863796 0.491226 3.740870
0.854274 0.491714 3.742960
0.845241 0.492447 3.747830
0.836207 0.492935 3.752930
0.824244 0.491958 3.743890
0.814234 0.491958 3.744820
0.803735 0.491714 3.742960
0.795190 0.492691 3.749920
0.783959 0.492203 3.744820
0.773705 0.491958 3.743890
0.762230 0.491226 3.736930
0.750999 0.490493 3.731830
0.740745 0.490493 3.730900
0.731468 0.490982 3.734840
0.722434 0.491714 3.739950
0.712424 0.491714 3.740870
0.702414 0.491958 3.740870
0.691671 0.491470 3.737860
0.681417 0.491470 3.736930
0.671407 0.491470 3.737860
0.662130 0.492203 3.741800
0.651875 0.492203 3.741800
0.640889 0.491470 3.735770
0.629658 0.490738 3.729970
0.619160 0.490493 3.727880
1.741750 0.485611 3.784940
1.727590 0.484634 3.776820
1.714160 0.483657 3.769870
1.705370 0.483902 3.772880
1.699030 0.485122 3.781930
1.690730 0.485611 3.785870
1.678520 0.485122 3.781930
1.654840 0.484146 3.774970
1.646530 0.484634 3.778910
1.636280 0.484634 3.778910
1.625050 0.484390 3.776820
1.611130 0.483169 3.767780
1.600880 0.483169 3.767780
1.590620 0.483169 3.767780
1.580370 0.483169 3.767780
1.569380 0.482925 3.765920
1.561570 0.483657 3.771950
1.551810 0.483902 3.772880
1.540820 0.483657 3.770790
1.528370 0.482925 3.765000
1.517620 0.482681 3.763840
1.506640 0.482437 3.761980
1.498090 0.482925 3.765920
1.487110 0.482681 3.763840
1.477100 0.482681 3.763840
1.464160 0.481948 3.756880
1.456340 0.482681 3.762910
1.447070 0.482925 3.765000
1.437540 0.483169 3.766850
1.426800 0.482925 3.765000
1.416550 0.482925 3.765000
1.406780 0.482925 3.765920
1.394090 0.482192 3.758970
1.382120 0.481460 3.753860
1.371870 0.481460 3.753860
1.364790 0.482681 3.761980
1.356730 0.483413 3.767780
1.347450 0.483657 3.769870
1.337200 0.483657 3.769870
1.326700 0.483657 3.768940
1.315960 0.483413 3.766850
1.305460 0.483169 3.765920
1.294720 0.482925 3.763840
1.284710 0.483169 3.765000
1.273230 0.482681 3.760820
1.263470 0.482681 3.761980
1.253700 0.482925 3.762910
1.244910 0.483413 3.766850
1.234410 0.483413 3.765920
1.223180 0.482925 3.761980
1.212680 0.482681 3.760820
1.201940 0.482437 3.758970
1.194860 0.483902 3.768940
1.184120 0.483657 3.766850
1.174110 0.483657 3.766850
1.162140 0.482925 3.760820
1.152380 0.483169 3.761980
1.140900 0.482681 3.757810
1.128700 0.481704 3.750850
1.117710 0.481460 3.747830
1.108920 0.481948 3.751770
1.100620 0.482681 3.757810
1.090610 0.482925 3.758970
1.078890 0.482192 3.752930
1.068150 0.481948 3.750850
1.059360 0.482437 3.754790
1.050330 0.482925 3.758970
1.040070 0.482925 3.758970
1.028840 0.482437 3.754790
1.019320 0.482681 3.756880
1.007840 0.482192 3.751770
0.997833 0.482192 3.751770
0.986358 0.481704 3.746900
0.976836 0.481948 3.748990
0.966826 0.481948 3.748990
0.958281 0.482681 3.754790
0.947783 0.482681 3.753860
0.937773 0.482681 3.753860
0.927030 0.482437 3.751770
0.916288 0.482192 3.748990
0.906278 0.482192 3.748990
0.895291 0.481704 3.745980
0.885281 0.481704 3.745980
0.874783 0.481460 3.743890
0.865017 0.481948 3.745980
0.855983 0.482437 3.749920
0.847438 0.483413 3.756880
0.837916 0.483657 3.759890
0.815455 0.482437 3.749920
0.804224 0.481948 3.744820
0.794458 0.482192 3.745980
0.783715 0.481704 3.742960
0.773217 0.481704 3.741800
0.762474 0.481216 3.738790
0.751488 0.480728 3.733920
0.740745 0.480239 3.730900
0.731223 0.480728 3.732990
0.721458 0.480972 3.734840
0.712180 0.481460 3.739950
0.702658 0.481948 3.742960
0.692892 0.482192 3.744820
0.682150 0.481704 3.740870
0.671651 0.481460 3.738790
0.662130 0.481948 3.741800
0.651875 0.481948 3.741800
0.641133 0.481460 3.737860
0.630390 0.480972 3.733920
0.620136 0.480972 3.732990
1.744440 0.476089 3.790970
1.732230 0.475600 3.786800
1.715140 0.473647 3.771950
1.702930 0.473159 3.767780
1.697320 0.474380 3.777980
1.689260 0.475112 3.782850
1.678520 0.474868 3.781930
1.667290 0.474624 3.779840
1.644340 0.473891 3.773810
1.632620 0.473403 3.770790
1.623830 0.473891 3.773810
1.612350 0.473403 3.770790
1.602590 0.473647 3.771950
1.591110 0.473159 3.768940
1.580860 0.473159 3.768940
1.571090 0.473159 3.769870
1.563040 0.473891 3.774970
1.552780 0.473891 3.774970
1.541800 0.473647 3.772880
1.529100 0.472915 3.766850
1.518600 0.472671 3.765920
1.509570 0.473159 3.768940
1.499310 0.473159 3.768940
1.488330 0.472915 3.766850
1.478560 0.473159 3.767780
1.467330 0.472671 3.765000
1.458300 0.473159 3.767780
1.448040 0.473159 3.767780
1.438760 0.473403 3.769870
1.428270 0.473159 3.768940
1.418010 0.473159 3.768940
1.408730 0.473403 3.770790
1.397020 0.472915 3.766850
1.385780 0.472671 3.763840
1.373580 0.471938 3.757810
1.364790 0.472427 3.761980
1.356000 0.472915 3.765920
1.348190 0.473647 3.771950
1.339150 0.474136 3.774970
1.327430 0.473647 3.770790
1.315230 0.472915 3.765000
1.304480 0.472671 3.762910
1.293980 0.472671 3.761980
1.282750 0.472182 3.758970
1.272740 0.472182 3.758970
1.263950 0.472671 3.762910
1.256140 0.473647 3.769870
1.246620 0.473891 3.771950
1.235880 0.473647 3.769870
1.224160 0.473159 3.765000
1.212930 0.472671 3.761980
1.203160 0.472915 3.762910
1.194620 0.473647 3.767780
1.184120 0.473403 3.766850
1.173380 0.473159 3.765000
1.161170 0.472427 3.757810
1.151400 0.472427 3.758970
1.141390 0.472427 3.758970
1.129920 0.472182 3.754790
1.118930 0.471694 3.751770
1.109410 0.471938 3.753860
1.101110 0.472671 3.759890
1.091830 0.473159 3.762910
1.079870 0.472427 3.755950
1.069610 0.472427 3.755950
1.059600 0.472427 3.755950
1.050080 0.472671 3.757810
1.040070 0.472915 3.758970
1.029330 0.472427 3.755950
1.019320 0.472671 3.756880
1.007840 0.471938 3.751770
0.997589 0.471938 3.750850
0.987335 0.471938 3.749920
0.976592 0.471694 3.747830
0.967559 0.472182 3.751770
0.957793 0.472427 3.752930
0.947783 0.472427 3.753860
0.938017 0.472671 3.754790
0.927030 0.472182 3.751770
0.916044 0.471938 3.747830
0.905301 0.471450 3.744820
0.895291 0.471694 3.745980
0.885525 0.471694 3.746900
0.874538 0.471206 3.742960
0.864284 0.471206 3.741800
0.855739 0.472182 3.748990
0.846461 0.472671 3.752930
0.825220 0.472182 3.747830
0.815455 0.472427 3.749920
0.804224 0.471694 3.744820
0.793970 0.471694 3.743890
0.782495 0.470962 3.737860
0.772973 0.471206 3.739950
0.762474 0.470962 3.737860
0.752220 0.470962 3.737860
0.741722 0.470962 3.735770
0.732444 0.471206 3.738790
0.721946 0.471206 3.737860
0.711936 0.471206 3.737860
0.703635 0.472427 3.746900
0.693869 0.472671 3.749920
0.682638 0.471938 3.743890
0.670919 0.470962 3.734840
0.661153 0.471206 3.736930
0.651143 0.471206 3.736930
0.640645 0.470962 3.734840
0.630146 0.470717 3.731830
0.619892 0.470473 3.730900
1.752490 0.465346 3.785870
1.745660 0.466079 3.793990
1.730280 0.464858 3.782850
1.715140 0.463393 3.771950
1.702200 0.462661 3.765920
1.695360 0.463637 3.773810
1.688280 0.464614 3.781000
1.676320 0.464125 3.776820
1.665580 0.463881 3.775900
1.652390 0.462905 3.768940
1.643850 0.463393 3.772880
1.632370 0.463149 3.769870
1.623830 0.463637 3.773810
1.614310 0.463881 3.775900
1.604540 0.463881 3.776820
1.592820 0.463393 3.772880
1.581590 0.463149 3.770790
1.570120 0.462905 3.767780
1.562060 0.463393 3.772880
1.552780 0.463637 3.774970
1.543020 0.463881 3.775900
1.532270 0.463637 3.774970
1.519330 0.462905 3.767780
1.509570 0.462905 3.768940
1.497360 0.462416 3.763840
1.488330 0.462661 3.766850
1.478560 0.462905 3.767780
1.468790 0.462905 3.768940
1.458050 0.462661 3.766850
1.446580 0.462416 3.763840
1.438760 0.463149 3.769870
1.429490 0.463393 3.771950
1.419230 0.463393 3.771950
1.408250 0.463149 3.769870
1.397500 0.462905 3.767780
1.387740 0.463149 3.768940
1.376510 0.462661 3.765920
1.366010 0.462661 3.765000
1.357220 0.463149 3.768940
1.348920 0.463881 3.773810
1.327920 0.463637 3.771950
1.314490 0.462416 3.762910
1.302770 0.461928 3.757810
1.292520 0.461928 3.757810
1.283490 0.462172 3.760820
1.273960 0.462661 3.762910
1.263220 0.462416 3.760820
1.255900 0.463393 3.768940
1.245400 0.463149 3.767780
1.235880 0.463393 3.769870
1.222450 0.462172 3.759890
1.213420 0.462661 3.762910
1.203160 0.462661 3.762910
1.195590 0.463637 3.770790
1.184610 0.463393 3.767780
1.174350 0.463393 3.767780
1.161900 0.462416 3.759890
1.151160 0.462172 3.757810
1.140900 0.462172 3.757810
1.130650 0.462172 3.756880
1.119660 0.461928 3.753860
1.110390 0.462172 3.756880
1.101110 0.462661 3.759890
1.091590 0.462905 3.761980
1.080840 0.462661 3.759890
1.070590 0.462661 3.758970
1.060090 0.462416 3.757810
1.048620 0.461928 3.752930
1.040560 0.462661 3.759890
1.030550 0.462905 3.760820
1.020290 0.462905 3.759890
1.007350 0.461684 3.749920
0.997101 0.461440 3.748990
0.987823 0.461928 3.751770
0.977081 0.461684 3.749920
0.967071 0.461684 3.749920
0.956328 0.461440 3.746900
0.947295 0.462172 3.751770
0.937040 0.461928 3.750850
0.926786 0.461928 3.749920
0.915799 0.461440 3.746900
0.905545 0.461440 3.745980
0.895779 0.461684 3.747830
0.885037 0.461440 3.744820
0.873562 0.460707 3.738790
0.863552 0.460707 3.738790
0.854762 0.461440 3.744820
0.845729 0.462172 3.749920
0.835475 0.462172 3.748990
0.824976 0.461928 3.746900
0.815210 0.462172 3.748990
0.804224 0.461684 3.744820
0.793970 0.461440 3.743890
0.781518 0.460219 3.732990
0.770775 0.459975 3.729970
0.760765 0.459975 3.729970
0.741722 0.460707 3.734840
0.731712 0.460707 3.735770
0.721458 0.460707 3.734840
0.712180 0.461196 3.738790
0.702902 0.461928 3.743890
0.693136 0.462172 3.745980
0.682150 0.461440 3.740870
0.670919 0.460707 3.733920
0.660665 0.460707 3.733920
0.650655 0.460707 3.733920
0.640400 0.460707 3.732990
0.629902 0.460219 3.729970
0.619648 0.460463 3.729970
1.752250 0.455092 3.785870
1.740780 0.454604 3.782850
1.728570 0.454115 3.778910
1.716850 0.453627 3.775900
1.705620 0.453383 3.773810
1.695360 0.453383 3.773810
1.684870 0.453383 3.772880
1.674120 0.453139 3.771950
1.663380 0.453139 3.770790
1.652640 0.452895 3.769870
1.644340 0.453383 3.773810
1.635790 0.453871 3.777980
1.626030 0.454115 3.778910
1.615280 0.453871 3.777980
1.605030 0.453871 3.777980
1.593550 0.453383 3.774970
1.581350 0.452895 3.769870
1.569870 0.452651 3.766850
1.560840 0.452895 3.769870
1.553510 0.453627 3.776820
1.544480 0.454115 3.779840
1.535940 0.454604 3.783780
1.521290 0.453383 3.772880
1.510300 0.453139 3.770790
1.496870 0.452162 3.762910
1.488810 0.452651 3.767780
1.479540 0.452895 3.769870
1.470750 0.453383 3.773810
1.458780 0.452895 3.768940
1.447310 0.452406 3.765920
1.437300 0.452406 3.765920
1.429490 0.453139 3.771950
1.419230 0.453139 3.771950
1.408730 0.453139 3.770790
1.398480 0.453139 3.770790
1.378950 0.453383 3.772880
1.366990 0.452895 3.767780
1.356970 0.452895 3.767780
1.348920 0.453627 3.773810
1.338660 0.453627 3.773810
1.326700 0.452895 3.768940
1.314980 0.452406 3.763840
1.303990 0.452162 3.761980
1.294230 0.452406 3.762910
1.283490 0.452162 3.760820
1.272500 0.451674 3.757810
1.261270 0.451430 3.754790
1.253940 0.452406 3.762910
1.245400 0.453139 3.767780
1.235630 0.453139 3.768940
1.223180 0.452406 3.761980
1.214640 0.452895 3.766850
1.203650 0.452651 3.763840
1.195100 0.453383 3.768940
1.184850 0.453383 3.768940
1.174350 0.453139 3.767780
1.162140 0.452406 3.760820
1.150910 0.451918 3.756880
1.141150 0.452162 3.757810
1.130890 0.452162 3.757810
1.120880 0.452162 3.757810
1.111610 0.452651 3.760820
1.101600 0.452651 3.760820
1.091100 0.452406 3.759890
1.080600 0.452406 3.758970
1.070590 0.452406 3.758970
1.060090 0.452406 3.757810
1.048370 0.451674 3.751770
1.040310 0.452406 3.758970
1.030790 0.452651 3.760820
1.021270 0.453139 3.763840
1.008330 0.451918 3.752930
0.997589 0.451674 3.750850
0.988311 0.451918 3.753860
0.977813 0.451918 3.751770
0.967315 0.451674 3.750850
0.956572 0.451430 3.747830
0.947539 0.451918 3.751770
0.936796 0.451674 3.749920
0.926298 0.451430 3.747830
0.916044 0.451430 3.747830
0.906034 0.451674 3.747830
0.895779 0.451430 3.746900
0.884060 0.450697 3.739950
0.873074 0.450209 3.736930
0.863308 0.450453 3.737860
0.855251 0.451674 3.746900
0.844752 0.451430 3.744820
0.834254 0.451186 3.742960
0.823511 0.450942 3.739950
0.814234 0.451430 3.743890
0.804468 0.451674 3.745980
0.794702 0.451674 3.746900
0.782739 0.450697 3.737860
0.770775 0.449721 3.728810
0.760765 0.449721 3.729970
0.753197 0.451186 3.741800
0.732688 0.451186 3.740870
0.722678 0.451186 3.740870
0.712912 0.451430 3.742960
0.703391 0.451918 3.745980
0.692648 0.451674 3.742960
0.682150 0.451430 3.740870
0.670431 0.450453 3.731830
0.660421 0.450453 3.731830
0.650899 0.450697 3.734840
0.640889 0.450942 3.735770
0.629902 0.450209 3.730900
1.752740 0.444838 3.786800
1.738820 0.443861 3.778910
1.725390 0.443129 3.771950
1.715630 0.443129 3.772880
1.706110 0.443373 3.774970
1.696340 0.443373 3.775900
1.685110 0.443129 3.773810
1.673640 0.442885 3.770790
1.663870 0.442885 3.771950
1.654100 0.443129 3.772880
1.645070 0.443373 3.775900
1.636280 0.443861 3.778910
1.626760 0.444105 3.781000
1.616990 0.444105 3.781930
1.604300 0.443373 3.775900
1.593070 0.443129 3.773810
1.579880 0.442396 3.766850
1.569380 0.442152 3.765920
1.557910 0.441908 3.762910
1.551560 0.442885 3.771950
1.543260 0.443617 3.776820
1.535940 0.444349 3.783780
1.520550 0.442885 3.770790
1.508350 0.442152 3.765920
1.495900 0.441664 3.759890
1.488330 0.442396 3.766850
1.478320 0.442396 3.766850
1.468790 0.442640 3.768940
1.457560 0.442396 3.765920
1.446580 0.442152 3.763840
1.436080 0.441908 3.762910
1.428270 0.442640 3.768940
1.419230 0.443129 3.771950
1.409470 0.443129 3.772880
1.399700 0.443373 3.773810
1.389200 0.443129 3.772880
1.378700 0.443129 3.771950
1.367470 0.442640 3.768940
1.357710 0.442885 3.769870
1.348190 0.443129 3.771950
1.336950 0.442885 3.768940
1.325480 0.442396 3.765000
1.314490 0.442152 3.762910
1.304240 0.441908 3.761980
1.293740 0.441908 3.760820
1.284220 0.442152 3.762910
1.274450 0.442396 3.763840
1.262730 0.441664 3.758970
1.253210 0.441908 3.760820
1.243200 0.442152 3.760820
1.233920 0.442396 3.763840
1.222450 0.441908 3.759890
1.213420 0.442396 3.762910
1.202670 0.442152 3.760820
1.192910 0.442152 3.761980
1.183870 0.442885 3.765920
1.162390 0.442396 3.761980
1.152130 0.442152 3.760820
1.142860 0.442640 3.763840
1.132110 0.442396 3.761980
1.120880 0.441908 3.757810
1.111360 0.442152 3.759890
1.102080 0.442640 3.762910
1.091340 0.442396 3.760820
1.079870 0.441908 3.755950
1.069860 0.441908 3.755950
1.061070 0.442396 3.760820
1.051300 0.442640 3.761980
1.042270 0.443129 3.765920
1.031530 0.442885 3.763840
1.021520 0.442885 3.763840
1.009060 0.442152 3.755950
0.998321 0.441664 3.752930
0.988311 0.441908 3.753860
0.978057 0.441908 3.752930
0.966582 0.441176 3.747830
0.957060 0.441420 3.749920
0.947783 0.441908 3.752930
0.937040 0.441664 3.750850
0.926542 0.441420 3.748990
0.916288 0.441420 3.748990
0.907498 0.442152 3.753860
0.896756 0.441908 3.750850
0.885037 0.440931 3.743890
0.874294 0.440687 3.741800
0.864772 0.441176 3.743890
0.855739 0.441664 3.748990
0.845241 0.441420 3.746900
0.834498 0.441176 3.743890
0.823267 0.440687 3.738790
0.813990 0.441176 3.742960
0.804468 0.441420 3.745980
0.795923 0.442396 3.752930
0.784448 0.441664 3.745980
0.773461 0.441176 3.741800
0.762230 0.440443 3.736930
0.752708 0.440931 3.739950
0.713401 0.441664 3.744820
0.703146 0.441664 3.744820
0.691183 0.440443 3.734840
0.680929 0.440199 3.732990
0.670186 0.439955 3.729970
0.660909 0.440443 3.733920
0.651143 0.440931 3.736930
0.641621 0.441176 3.739950
0.630634 0.440687 3.734840
1.753720 0.434828 3.788890
1.737850 0.433363 3.776820
1.726620 0.433119 3.774970
1.715380 0.432875 3.772880
1.708060 0.433607 3.778910
1.696830 0.433363 3.776820
1.686570 0.433363 3.776820
1.675830 0.433363 3.775900
1.666550 0.433363 3.777980
1.655810 0.433363 3.776820
1.645070 0.433119 3.775900
1.634820 0.433119 3.775900
1.625540 0.433363 3.777980
1.615280 0.433363 3.777980
1.603320 0.432875 3.773810
1.591110 0.432386 3.768940
1.581590 0.432630 3.770790
1.571580 0.432630 3.770790
1.560840 0.432630 3.769870
1.552290 0.432875 3.773810
1.542530 0.433119 3.774970
1.534470 0.433607 3.779840
1.519820 0.432386 3.768940
1.507860 0.431898 3.765000
1.497360 0.431898 3.763840
1.491500 0.433119 3.774970
1.482220 0.433363 3.776820
1.471970 0.433363 3.776820
1.460250 0.432875 3.772880
1.448290 0.432386 3.767780
1.436570 0.431898 3.763840
1.427530 0.432142 3.766850
1.418500 0.432630 3.769870
1.409470 0.432875 3.772880
1.398480 0.432630 3.770790
1.390180 0.433363 3.775900
1.378950 0.433119 3.772880
1.368210 0.432875 3.770790
1.356490 0.432386 3.766850
1.347940 0.432875 3.770790
1.335980 0.432386 3.765920
1.325720 0.432386 3.765920
1.314490 0.431898 3.762910
1.304730 0.432142 3.763840
1.293980 0.431898 3.761980
1.285680 0.432386 3.766850
1.275190 0.432386 3.765920
1.264930 0.432386 3.765920
1.253210 0.431898 3.760820
1.242710 0.431654 3.759890
1.232700 0.431898 3.759890
1.222450 0.431898 3.759890
1.213170 0.432142 3.761980
1.203410 0.432142 3.762910
1.193150 0.432142 3.762910
1.184610 0.432875 3.767780
1.164340 0.432875 3.767780
1.153600 0.432630 3.765920
1.143590 0.432630 3.765920
1.131380 0.431898 3.758970
1.119420 0.431166 3.752930
1.111120 0.431898 3.758970
1.103790 0.433119 3.768940
1.093780 0.433119 3.768940
1.080840 0.432142 3.758970
1.070100 0.431898 3.756880
1.061310 0.432386 3.761980
1.053010 0.433119 3.767780
1.041780 0.432630 3.763840
1.030300 0.432142 3.758970
1.019560 0.431898 3.756880
1.008580 0.431654 3.753860
0.998566 0.431654 3.753860
0.988311 0.431654 3.753860
0.977813 0.431410 3.751770
0.967803 0.431654 3.751770
0.958281 0.431898 3.754790
0.949004 0.432386 3.757810
0.937529 0.431654 3.752930
0.926054 0.431166 3.746900
0.915311 0.430677 3.743890
0.906278 0.431410 3.748990
0.897000 0.431654 3.751770
0.885769 0.431410 3.747830
0.875515 0.431166 3.746900
0.864772 0.430921 3.743890
0.855739 0.431654 3.748990
0.845485 0.431410 3.747830
0.834986 0.431166 3.745980
0.824000 0.430921 3.741800
0.813746 0.430677 3.740870
0.804712 0.431410 3.745980
0.794702 0.431410 3.746900
0.775170 0.431898 3.749920
0.765160 0.432142 3.750850
0.754173 0.431654 3.746900
0.743675 0.431410 3.744820
0.733909 0.431654 3.745980
0.723899 0.431654 3.746900
0.713889 0.431654 3.746900
0.702902 0.431410 3.742960
0.691183 0.430433 3.734840
0.680197 0.429945 3.729970
0.670431 0.429945 3.730900
0.651631 0.430921 3.738790
0.641377 0.430921 3.737860
1.754690 0.424818 3.790970
1.740040 0.423841 3.781930
1.727590 0.423109 3.776820
1.715380 0.422864 3.772880
1.708300 0.423597 3.779840
1.698540 0.423597 3.781000
1.689260 0.423841 3.782850
1.678520 0.423841 3.781930
1.666550 0.423353 3.777980
1.655320 0.423109 3.775900
1.644340 0.422864 3.773810
1.634080 0.422864 3.773810
1.624320 0.422864 3.774970
1.614060 0.422864 3.774970
1.602830 0.422620 3.772880
1.590620 0.422132 3.767780
1.580370 0.422132 3.767780
1.570600 0.422132 3.768940
1.562060 0.422620 3.772880
1.551810 0.422620 3.772880
1.542530 0.422864 3.774970
1.532270 0.422864 3.774970
1.520070 0.422376 3.769870
1.507860 0.421888 3.765000
1.496630 0.421400 3.761980
1.488810 0.422132 3.767780
1.479780 0.422376 3.770790
1.471240 0.422864 3.774970
1.460250 0.422620 3.772880
1.448530 0.422376 3.768940
1.437790 0.422132 3.766850
1.427530 0.422132 3.766850
1.418500 0.422376 3.769870
1.407510 0.422132 3.767780
1.397750 0.422376 3.768940
1.389200 0.422864 3.772880
1.379440 0.422864 3.773810
1.368940 0.422864 3.772880
1.357710 0.422620 3.769870
1.348190 0.422620 3.771950
1.338180 0.422864 3.771950
1.328170 0.422864 3.772880
1.315710 0.422132 3.765920
1.304480 0.421888 3.762910
1.294720 0.421888 3.763840
1.286420 0.422620 3.768940
1.277140 0.422864 3.771950
1.266400 0.422620 3.769870
1.254920 0.422132 3.765920
1.242710 0.421644 3.759890
1.233680 0.421888 3.762910
1.224160 0.422132 3.765000
1.215120 0.422620 3.767780
1.205600 0.422864 3.769870
1.195100 0.422620 3.768940
1.185580 0.422864 3.770790
1.175570 0.422864 3.770790
1.166300 0.423353 3.773810
1.155800 0.423353 3.772880
1.143830 0.422620 3.766850
1.131870 0.421888 3.760820
1.120400 0.421400 3.755950
1.112830 0.422376 3.765000
1.104040 0.422864 3.768940
1.094270 0.423109 3.770790
1.081580 0.422132 3.761980
1.072540 0.422620 3.765920
1.063750 0.423109 3.769870
1.054480 0.423597 3.772880
1.041540 0.422376 3.762910
1.029570 0.421888 3.756880
1.018590 0.421400 3.752930
1.008090 0.421400 3.751770
0.998321 0.421400 3.752930
0.988800 0.421644 3.754790
0.978545 0.421644 3.754790
0.968291 0.421644 3.753860
0.957793 0.421644 3.752930
0.948271 0.421888 3.754790
0.936552 0.421155 3.748990
0.927030 0.421400 3.750850
0.915799 0.420911 3.745980
0.907254 0.421644 3.752930
0.897488 0.421888 3.753860
0.886990 0.421644 3.752930
0.876003 0.421400 3.748990
0.864772 0.420911 3.743890
0.854762 0.420911 3.743890
0.844264 0.420667 3.742960
0.834498 0.420911 3.743890
0.824244 0.420911 3.742960
0.814722 0.421155 3.745980
0.804712 0.421155 3.745980
0.795434 0.421644 3.749920
0.785180 0.421644 3.749920
0.775903 0.422132 3.753860
0.765893 0.422132 3.753860
0.754173 0.421400 3.745980
0.743675 0.421155 3.743890
0.733665 0.421400 3.744820
0.724143 0.421644 3.747830
0.713401 0.421400 3.744820
0.702414 0.420911 3.739950
0.690695 0.419935 3.731830
0.670675 0.420179 3.732990
0.661641 0.420911 3.738790
0.652120 0.421155 3.741800
0.641377 0.420667 3.737860
1.752250 0.414075 3.785870
1.740530 0.413587 3.782850
1.730280 0.413587 3.782850
1.721000 0.413831 3.784940
1.710750 0.413831 3.784940
1.698540 0.413343 3.781000
1.688770 0.413587 3.781930
1.678030 0.413343 3.781000
1.666070 0.412854 3.776820
1.654350 0.412610 3.773810
1.644090 0.412610 3.773810
1.634330 0.412610 3.774970
1.625050 0.412854 3.776820
1.613570 0.412610 3.773810
1.603810 0.412610 3.774970
1.591360 0.412122 3.769870
1.580860 0.412122 3.768940
1.571090 0.412122 3.769870
1.562060 0.412366 3.772880
1.551810 0.412366 3.772880
1.541310 0.412366 3.771950
1.530810 0.412366 3.770790
1.521290 0.412366 3.772880
1.511280 0.412366 3.772880
1.500530 0.412366 3.771950
1.480270 0.412366 3.771950
1.461960 0.412854 3.776820
1.449020 0.412122 3.769870
1.438030 0.411878 3.767780
1.417280 0.411878 3.766850
1.405800 0.411389 3.762910
1.397500 0.412122 3.767780
1.389940 0.412854 3.774970
1.380410 0.413099 3.776820
1.369180 0.412854 3.773810
1.359170 0.412854 3.773810
1.348920 0.412854 3.773810
1.339400 0.413099 3.775900
1.327680 0.412366 3.770790
1.315960 0.412122 3.766850
1.306190 0.412122 3.767780
1.296430 0.412366 3.768940
1.287640 0.412854 3.772880
1.274940 0.411878 3.765000
1.263710 0.411634 3.761980
1.253210 0.411634 3.760820
1.243930 0.411634 3.762910
1.234660 0.412122 3.765920
1.224890 0.412122 3.766850
1.215610 0.412610 3.769870
1.206340 0.412854 3.771950
1.197300 0.413343 3.775900
1.187540 0.413343 3.776820
1.178010 0.413587 3.778910
1.167030 0.413343 3.775900
1.142860 0.412122 3.763840
1.131630 0.411634 3.759890
1.121620 0.411634 3.759890
1.112830 0.412366 3.765000
1.102080 0.412122 3.762910
1.092320 0.412122 3.763840
1.081090 0.411878 3.759890
1.073030 0.412610 3.766850
1.062780 0.412610 3.766850
1.052770 0.412610 3.766850
1.039580 0.411389 3.755950
1.028600 0.411145 3.752930
