1.054480 -0.777367 3.705850
1.009550 -0.773705 3.687990
1.054230 -0.779809 3.670830
1.046420 -0.781274 3.677790
1.037140 -0.781762 3.679870
1.029570 -0.783715 3.688920
1.018830 -0.783227 3.685900
1.012480 -0.785913 3.698890
1.004910 -0.787866 3.707940
0.991974 -0.785668 3.696800
0.979278 -0.783227 3.685900
0.969512 -0.783471 3.686830
0.962432 -0.785913 3.697960
0.956572 -0.789331 3.713970
0.947539 -0.790307 3.717910
0.936552 -0.789331 3.713970
0.926786 -0.789575 3.714900
0.917264 -0.790063 3.716980
0.905789 -0.788842 3.710950
0.895535 -0.788598 3.709790
0.885769 -0.788842 3.710950
0.876003 -0.789087 3.711880
0.863796 -0.787133 3.701910
0.853786 -0.787133 3.701910
0.844020 -0.787378 3.702840
0.833522 -0.787133 3.700980
0.824732 -0.788110 3.705850
0.815455 -0.788842 3.708870
0.804712 -0.788110 3.705850
0.794458 -0.788110 3.704920
0.785180 -0.788598 3.707940
1.058380 -0.785424 3.650880
1.046420 -0.783959 3.643920
1.037630 -0.784692 3.646940
1.028840 -0.785424 3.650880
1.021030 -0.786889 3.657840
1.009800 -0.785913 3.652970
1.001500 -0.787378 3.659000
0.992218 -0.787866 3.660850
0.983184 -0.788354 3.663870
0.971954 -0.787378 3.659000
0.961943 -0.787133 3.657840
0.953398 -0.788354 3.662940
0.943388 -0.788354 3.662940
0.934111 -0.788842 3.664800
0.923124 -0.788110 3.660850
0.914579 -0.789087 3.665960
0.904569 -0.788842 3.664800
0.893826 -0.788354 3.661780
0.882839 -0.787378 3.656910
0.873806 -0.788110 3.660850
0.863796 -0.788110 3.659930
0.853786 -0.788110 3.659930
0.844020 -0.788110 3.659930
0.834254 -0.788110 3.659930
0.823267 -0.787133 3.654820
0.814478 -0.788110 3.659930
0.805933 -0.789575 3.665960
0.796167 -0.789819 3.666880
0.785913 -0.789331 3.664800
0.777367 -0.790796 3.670830
0.768090 -0.791528 3.674770
0.758568 -0.792016 3.676860
0.750511 -0.793970 3.685900
0.741234 -0.794702 3.688920
0.732688 -0.796411 3.695880
0.722922 -0.796655 3.696800
0.715110 -0.799097 3.707940
0.707297 -0.801538 3.720000
0.698996 -0.803491 3.728810
0.689718 -0.804712 3.733920
0.681661 -0.806909 3.743890
1.001740 -0.789575 3.623980
0.992950 -0.790307 3.627920
0.983428 -0.790551 3.628850
0.974395 -0.791040 3.630930
0.964629 -0.791284 3.630930
0.954131 -0.790796 3.628850
0.944853 -0.791284 3.630930
0.935331 -0.791528 3.631860
0.926542 -0.792505 3.635800
0.915799 -0.791528 3.631860
0.906278 -0.791772 3.632790
0.896023 -0.791528 3.630930
0.885769 -0.791040 3.628850
0.876492 -0.791528 3.630930
0.867702 -0.792505 3.634880
0.858180 -0.792749 3.635800
0.848415 -0.792993 3.636960
0.838649 -0.792993 3.636960
0.827662 -0.792016 3.631860
0.816919 -0.790796 3.626990
0.807642 -0.791528 3.629770
0.799829 -0.793481 3.638820
0.790307 -0.793725 3.639980
0.781030 -0.794458 3.642990
0.772240 -0.795434 3.646940
0.763451 -0.796655 3.651810
0.753929 -0.796899 3.653900
0.745384 -0.798608 3.660850
0.736595 -0.799829 3.665960
0.728294 -0.801538 3.673840
0.719260 -0.802515 3.677790
0.710715 -0.804224 3.685900
0.702414 -0.806177 3.694950
0.692648 -0.806421 3.695880
0.683859 -0.807886 3.701910
0.674581 -0.808618 3.705850
0.667745 -0.812525 3.722780
0.660665 -0.816431 3.740870
0.994415 -0.793481 3.598000
0.986114 -0.794702 3.602870
0.976836 -0.794946 3.603800
0.968535 -0.796411 3.609830
0.959014 -0.796411 3.609830
0.949004 -0.796167 3.608900
0.939238 -0.796167 3.608900
0.929716 -0.796411 3.609830
0.921659 -0.798120 3.616790
0.911893 -0.797876 3.615860
0.901639 -0.797388 3.613770
0.891385 -0.796899 3.611910
0.881375 -0.796899 3.610990
0.872585 -0.797876 3.614930
0.863552 -0.798364 3.617940
0.854030 -0.798608 3.618870
0.843776 -0.798364 3.616790
0.834010 -0.798364 3.616790
0.823267 -0.797388 3.612840
0.813746 -0.797632 3.612840
0.804224 -0.798120 3.614930
0.795923 -0.799341 3.620960
0.786157 -0.799341 3.620960
0.776147 -0.799341 3.619800
0.768090 -0.801050 3.627920
0.759545 -0.802515 3.633950
0.750999 -0.803735 3.639980
0.742210 -0.804956 3.644850
0.733177 -0.805933 3.648790
0.725120 -0.807886 3.657840
0.715354 -0.808130 3.659000
0.706809 -0.809595 3.665960
0.697775 -0.810572 3.669900
0.687765 -0.810572 3.669900
0.677755 -0.810572 3.668970
0.668722 -0.811548 3.673840
0.660665 -0.813990 3.684980
0.653584 -0.817408 3.699820
0.646504 -0.821314 3.716980
0.638691 -0.824244 3.729970
0.993439 -0.794702 3.559960
0.988067 -0.798120 3.574800
0.980987 -0.800073 3.583850
0.972198 -0.800806 3.586860
0.964629 -0.802759 3.594980
0.954619 -0.802515 3.593820
0.944853 -0.802515 3.593820
0.934843 -0.802026 3.591970
0.926542 -0.803491 3.598000
0.917264 -0.803735 3.598930
0.908475 -0.804712 3.602870
0.897732 -0.803735 3.598930
0.887967 -0.803980 3.598930
0.877712 -0.803247 3.595910
0.867946 -0.803247 3.595910
0.859157 -0.804224 3.599850
0.849635 -0.804468 3.600780
0.840114 -0.804468 3.600780
0.830103 -0.804224 3.599850
0.819605 -0.803735 3.596840
0.810572 -0.804468 3.599850
0.802026 -0.805444 3.604960
0.793481 -0.806665 3.609830
0.784204 -0.807154 3.611910
0.774194 -0.806909 3.610990
0.765648 -0.808374 3.616790
0.757103 -0.809839 3.622820
0.749046 -0.811548 3.630930
0.739769 -0.812037 3.632790
0.730979 -0.813257 3.637890
0.720725 -0.812769 3.635800
0.710959 -0.812769 3.635800
0.701193 -0.813013 3.636960
0.691916 -0.813501 3.638820
0.680441 -0.811792 3.630930
0.669454 -0.810327 3.623980
0.660421 -0.811304 3.627920
0.652364 -0.813501 3.637890
0.642598 -0.813501 3.637890
0.632588 -0.813501 3.636960
0.625263 -0.816675 3.651810
0.618671 -0.821314 3.671990
0.614277 -0.828639 3.704920
0.990265 -0.801538 3.547900
0.984405 -0.804712 3.561820
0.977569 -0.807154 3.571790
0.969024 -0.808130 3.575960
0.961211 -0.809595 3.582920
0.949980 -0.808374 3.576890
0.939726 -0.807642 3.573880
0.929960 -0.807642 3.573880
0.922636 -0.809839 3.582920
0.914090 -0.810816 3.586860
0.905301 -0.811792 3.590810
0.894803 -0.810816 3.586860
0.883816 -0.809839 3.581990
0.872585 -0.808374 3.575960
0.863552 -0.808863 3.577820
0.855007 -0.810083 3.582920
0.846217 -0.810816 3.585940
0.836940 -0.811304 3.587790
0.826930 -0.811060 3.586860
0.817408 -0.811060 3.586860
0.808374 -0.811792 3.589880
0.800073 -0.813257 3.595910
0.791284 -0.814234 3.599850
0.782006 -0.814722 3.601940
0.772729 -0.815210 3.603800
0.764916 -0.817164 3.612840
0.755150 -0.817164 3.612840
0.708518 -0.808863 3.574800
0.698996 -0.808863 3.574800
0.690695 -0.810572 3.581990
0.680685 -0.810327 3.580830
0.669454 -0.808618 3.572950
0.658956 -0.807398 3.567850
0.651631 -0.810327 3.580830
0.643574 -0.812525 3.589880
0.633320 -0.811792 3.586860
0.623798 -0.811792 3.586860
0.616718 -0.815210 3.601940
0.603778 -0.824488 3.641830
0.596210 -0.827662 3.655980
0.981231 -0.811792 3.549990
0.973662 -0.813501 3.557870
0.965361 -0.814478 3.561820
0.957060 -0.815699 3.566920
0.945341 -0.813990 3.558800
0.935575 -0.813990 3.558800
0.926298 -0.814234 3.559960
0.920194 -0.817164 3.572950
0.911405 -0.818140 3.576890
0.902371 -0.818628 3.578980
0.891140 -0.817408 3.572950
0.880154 -0.815943 3.566920
0.869655 -0.815210 3.563900
0.860134 -0.815455 3.563900
0.852077 -0.816919 3.570860
0.843043 -0.817408 3.572950
0.834498 -0.818628 3.577820
0.824488 -0.818140 3.575960
0.814966 -0.818384 3.576890
0.805933 -0.818873 3.578980
0.797143 -0.819849 3.582920
0.788354 -0.820826 3.586860
0.779077 -0.821314 3.588950
0.720481 -0.810083 3.538850
0.709006 -0.807886 3.528880
0.697531 -0.805933 3.519830
0.687277 -0.804956 3.515890
0.680197 -0.807886 3.527950
0.671407 -0.808618 3.531890
0.661397 -0.808374 3.529810
0.651875 -0.808374 3.529810
0.644307 -0.810572 3.539780
0.637226 -0.813990 3.553930
0.628437 -0.815210 3.558800
0.619648 -0.815943 3.562970
0.942656 -0.821070 3.548830
0.932401 -0.820826 3.546970
0.923368 -0.821314 3.548830
0.916044 -0.823023 3.556940
0.907987 -0.824488 3.562970
0.897488 -0.824000 3.559960
0.886990 -0.823023 3.555780
0.876980 -0.822779 3.554860
0.867702 -0.823023 3.555780
0.858669 -0.823511 3.557870
0.850368 -0.824732 3.562970
0.841090 -0.825220 3.564830
0.831813 -0.825465 3.565990
0.821314 -0.824732 3.561820
0.742454 -0.812281 3.507770
0.730247 -0.809107 3.493860
0.720725 -0.809107 3.493860
0.711692 -0.809595 3.495940
0.699484 -0.806421 3.481800
0.688742 -0.805200 3.476000
0.679464 -0.805200 3.476000
0.672628 -0.808130 3.488990
0.664327 -0.809595 3.494780
0.655782 -0.810816 3.499890
0.646992 -0.811548 3.502900
0.639424 -0.814234 3.513800
0.631367 -0.816187 3.521920
0.623310 -0.817896 3.529810
0.615253 -0.819849 3.537930
0.940214 -0.828639 3.539780
0.931181 -0.829127 3.541870
0.922391 -0.829859 3.544880
0.913602 -0.830592 3.547900
0.904569 -0.831080 3.549990
0.894070 -0.830103 3.545810
0.884548 -0.830348 3.546970
0.875759 -0.831324 3.549990
0.867458 -0.832301 3.554860
0.857936 -0.832545 3.554860
0.848415 -0.832545 3.554860
0.838893 -0.832789 3.555780
0.829371 -0.832789 3.555780
0.760277 -0.820582 3.502900
0.742943 -0.812037 3.465790
0.729759 -0.807886 3.447930
0.720237 -0.807642 3.446770
0.711203 -0.807886 3.447930
0.703391 -0.809595 3.454890
0.692648 -0.808130 3.448860
0.683615 -0.808374 3.449790
0.674093 -0.808130 3.448860
0.667501 -0.811548 3.462780
0.659444 -0.813013 3.468810
0.651875 -0.815455 3.478780
0.643818 -0.817164 3.485970
0.636006 -0.819117 3.494780
0.627461 -0.820338 3.499890
0.619160 -0.822047 3.506850
0.611591 -0.824732 3.517980
0.597186 -0.831080 3.544880
0.938505 -0.836695 3.533980
0.928739 -0.836451 3.532820
0.919706 -0.836940 3.534910
0.909696 -0.836695 3.532820
0.901151 -0.837672 3.537000
0.890164 -0.836207 3.530970
0.882107 -0.837672 3.537000
0.873806 -0.838893 3.541870
0.866237 -0.840846 3.549990
0.856471 -0.840602 3.548830
0.846706 -0.840358 3.547900
0.799097 -0.831080 3.507770
0.786401 -0.827662 3.492930
0.770043 -0.820338 3.461850
0.757591 -0.816919 3.447930
0.745628 -0.814234 3.435870
0.732933 -0.810327 3.419870
0.720969 -0.807154 3.405950
0.712180 -0.807642 3.407810
0.703635 -0.808618 3.411980
0.696310 -0.810816 3.420800
0.687521 -0.811304 3.422880
0.679220 -0.812525 3.427990
0.669942 -0.812525 3.427990
0.662862 -0.815210 3.438890
0.654561 -0.816431 3.443990
0.647725 -0.819605 3.456980
0.640645 -0.822535 3.468810
0.633320 -0.825220 3.480870
0.624775 -0.826197 3.484810
0.615986 -0.827174 3.488990
0.608417 -0.829859 3.499890
0.601093 -0.832789 3.511950
0.594012 -0.836451 3.526790
0.936796 -0.844752 3.527950
0.926542 -0.844264 3.524940
0.916776 -0.844020 3.523780
0.907010 -0.843776 3.522850
0.898953 -0.844997 3.527950
0.889920 -0.845485 3.529810
0.881130 -0.846217 3.532820
0.872097 -0.846706 3.534910
0.863308 -0.847438 3.537930
0.853053 -0.846706 3.534910
0.811548 -0.833766 3.479940
0.797632 -0.828883 3.459990
0.784936 -0.825465 3.444920
0.768578 -0.818140 3.413840
0.758324 -0.816919 3.408970
0.747826 -0.815455 3.402940
0.738060 -0.814966 3.400850
0.727317 -0.813257 3.392960
0.715842 -0.810572 3.381830
0.705588 -0.809351 3.376960
0.697043 -0.810083 3.379970
0.690207 -0.812769 3.390880
0.680929 -0.812525 3.389950
0.673360 -0.814722 3.398990
0.665059 -0.815699 3.402940
0.659932 -0.820826 3.423810
0.651875 -0.822291 3.429840
0.645772 -0.826441 3.446770
0.637471 -0.827906 3.452800
0.630634 -0.831080 3.465790
0.621845 -0.831813 3.468810
0.613544 -0.833277 3.474840
0.605487 -0.835231 3.482960
0.598407 -0.838404 3.495940
0.592059 -0.843043 3.514960
0.584490 -0.845729 3.525860
0.576922 -0.848903 3.538850
0.945585 -0.853542 3.524940
0.935820 -0.853298 3.523780
0.924100 -0.851588 3.515890
0.896268 -0.852077 3.517980
0.887478 -0.852809 3.520990
0.878201 -0.853053 3.521920
0.867702 -0.852077 3.517980
0.828394 -0.841090 3.471820
0.811060 -0.833033 3.437960
0.782495 -0.822535 3.394820
0.768822 -0.817652 3.374870
0.760765 -0.819117 3.379970
0.751488 -0.818873 3.378810
0.741722 -0.818140 3.375800
0.731712 -0.817164 3.371860
0.721946 -0.816187 3.367910
0.711203 -0.814478 3.360950
0.700461 -0.812769 3.352840
0.691671 -0.813013 3.354000
0.683370 -0.813990 3.357940
0.674825 -0.814478 3.359800
0.667013 -0.815943 3.365830
0.659932 -0.818628 3.376960
0.655782 -0.824732 3.401780
0.648701 -0.827662 3.413840
0.642354 -0.831324 3.428910
0.633808 -0.832301 3.432860
0.626240 -0.834498 3.441900
0.619160 -0.837428 3.453960
0.610370 -0.838649 3.457910
0.602802 -0.841090 3.467880
0.595233 -0.843532 3.477850
0.588885 -0.847926 3.495940
0.581072 -0.850612 3.506850
0.575457 -0.856227 3.529810
0.943388 -0.861110 3.516820
0.933378 -0.860622 3.514960
0.884793 -0.859645 3.509860
0.795923 -0.826441 3.373940
0.781762 -0.821070 3.351910
0.769555 -0.817896 3.338920
0.760277 -0.817896 3.337990
0.751732 -0.818384 3.339850
0.742943 -0.818628 3.340780
0.732444 -0.816919 3.333820
0.723655 -0.817164 3.334980
0.715842 -0.818384 3.339850
0.707297 -0.818873 3.341940
0.697287 -0.818140 3.337990
0.688009 -0.817652 3.335910
0.679220 -0.818140 3.337990
0.671163 -0.819117 3.341940
0.664327 -0.821802 3.352840
0.657491 -0.824732 3.364900
0.652852 -0.830348 3.386930
0.645772 -0.833277 3.398990
0.638691 -0.835963 3.409890
0.629902 -0.836451 3.411980
0.622089 -0.838404 3.419870
0.615009 -0.841334 3.430770
0.607685 -0.844264 3.442830
0.600848 -0.847682 3.456980
0.593524 -0.850612 3.468810
0.586688 -0.854030 3.482960
0.579119 -0.856960 3.493860
0.574480 -0.864284 3.523780
0.780053 -0.819117 3.306910
0.771264 -0.819361 3.307840
0.761010 -0.817896 3.301810
0.750755 -0.816431 3.295780
0.741966 -0.816431 3.295780
0.733665 -0.817164 3.298790
0.723655 -0.815943 3.293920
0.715110 -0.816431 3.295780
0.705588 -0.815455 3.291840
0.697531 -0.816675 3.295780
0.689962 -0.818384 3.302970
0.681417 -0.818873 3.304820
0.673360 -0.819849 3.309000
0.666036 -0.822047 3.316890
0.660176 -0.825953 3.332890
0.654561 -0.830103 3.349820
0.648213 -0.833766 3.363970
0.641377 -0.836695 3.375800
0.634053 -0.838893 3.384840
0.626728 -0.841578 3.394820
0.618427 -0.842555 3.398990
0.600604 -0.856716 3.455820
0.593768 -0.860134 3.469970
0.586200 -0.863063 3.480870
0.579363 -0.866970 3.496870
0.574725 -0.874294 3.525860
0.803491 -0.824488 3.293920
0.790307 -0.820093 3.275830
0.776635 -0.815210 3.255890
0.767357 -0.814478 3.252870
0.758568 -0.814478 3.252870
0.751244 -0.816187 3.259830
0.743431 -0.817164 3.263770
0.734642 -0.817408 3.263770
0.725608 -0.817164 3.262840
0.717063 -0.817408 3.263770
0.709006 -0.818384 3.267950
0.699973 -0.817896 3.265860
0.690695 -0.817408 3.263770
0.682394 -0.818140 3.266790
0.675558 -0.820582 3.275830
0.668477 -0.822779 3.284880
0.660909 -0.824244 3.290910
0.655049 -0.828394 3.306910
0.648701 -0.831568 3.319900
0.642109 -0.834742 3.331960
0.635273 -0.837672 3.343790
0.629658 -0.842311 3.361880
0.623310 -0.845729 3.375800
0.615741 -0.848170 3.384840
0.598651 -0.863308 3.444920
0.592303 -0.867458 3.461850
0.585467 -0.871364 3.476930
0.579363 -0.876492 3.496870
0.573992 -0.882839 3.521920
0.817164 -0.829127 3.276990
0.805689 -0.826685 3.266790
0.794702 -0.824244 3.257970
0.782495 -0.820826 3.243820
0.770287 -0.817164 3.228980
0.758324 -0.813501 3.214830
0.749535 -0.813501 3.214830
0.742943 -0.815943 3.223880
0.735374 -0.817164 3.228980
0.727561 -0.818140 3.232920
0.720237 -0.819849 3.238950
0.711203 -0.819605 3.237790
0.704611 -0.822047 3.248000
0.695578 -0.821558 3.245910
0.687277 -0.822291 3.248000
0.678487 -0.822291 3.248000
0.670919 -0.823756 3.253800
0.663594 -0.825465 3.260990
0.655782 -0.826930 3.265860
0.649190 -0.829615 3.276990
0.642598 -0.832789 3.288820
0.635762 -0.835475 3.299950
0.629902 -0.839625 3.315960
0.624531 -0.844264 3.333820
0.618915 -0.849147 3.352840
0.612568 -0.853053 3.367910
0.607196 -0.858425 3.388790
0.596698 -0.869411 3.432860
0.590594 -0.874294 3.451880
0.584735 -0.879665 3.472980
0.579608 -0.886258 3.498960
0.572771 -0.890164 3.513800
0.818873 -0.830836 3.248930
0.806421 -0.826930 3.233850
0.795679 -0.824976 3.225970
0.785913 -0.824000 3.221790
0.774194 -0.820582 3.208800
0.762230 -0.817164 3.194890
0.750999 -0.814234 3.183980
0.742210 -0.813990 3.182820
0.735618 -0.816431 3.191870
0.726829 -0.816187 3.190940
0.719016 -0.817164 3.194890
0.712668 -0.819849 3.204860
0.705832 -0.821802 3.212980
0.699484 -0.824732 3.223880
0.692160 -0.826197 3.229910
0.683859 -0.826930 3.232000
0.674581 -0.826441 3.229910
0.667013 -0.827662 3.234780
0.659932 -0.829859 3.242900
0.652364 -0.831324 3.248930
0.645283 -0.833766 3.257970
0.638203 -0.835719 3.265860
0.632099 -0.839381 3.279780
0.625996 -0.843287 3.294850
0.620869 -0.848415 3.314800
0.614765 -0.852565 3.330800
0.608661 -0.856716 3.346810
0.603290 -0.861843 3.366990
0.598163 -0.867702 3.389950
0.593524 -0.874050 3.415000
0.588153 -0.880154 3.437960
0.582293 -0.885525 3.458830
0.576922 -0.891629 3.482960
0.569842 -0.895047 3.495940
0.834986 -0.838160 3.243820
0.820582 -0.832545 3.221790
0.806909 -0.827418 3.201840
0.796655 -0.825465 3.194890
0.786889 -0.824488 3.190940
0.777123 -0.823267 3.185840
0.765404 -0.819849 3.172850
0.754906 -0.817896 3.164960
0.745140 -0.816675 3.159860
0.736595 -0.816675 3.159860
0.728782 -0.817408 3.162880
0.721213 -0.818628 3.166820
0.713157 -0.819117 3.168910
0.705588 -0.820093 3.172850
0.698752 -0.822291 3.180970
0.693381 -0.826197 3.195810
0.686300 -0.828150 3.202770
0.678976 -0.829615 3.208800
0.669942 -0.829371 3.207870
0.663106 -0.831568 3.215990
0.656270 -0.833766 3.224810
0.649190 -0.836207 3.233850
0.641621 -0.837672 3.239880
0.635029 -0.840358 3.249860
0.628681 -0.843776 3.262840
0.623798 -0.849147 3.283950
0.618183 -0.853786 3.300880
0.612323 -0.857936 3.316890
0.604999 -0.860378 3.326860
0.599384 -0.865261 3.344950
0.594989 -0.871853 3.370930
0.592059 -0.881375 3.406880
0.587664 -0.888943 3.435870
0.580828 -0.892361 3.449790
0.836940 -0.840114 3.217850
0.820826 -0.832545 3.188850
0.807398 -0.827662 3.169840
0.797632 -0.826197 3.164960
0.788354 -0.825465 3.161950
0.778588 -0.824244 3.156850
0.769066 -0.823267 3.152900
0.758324 -0.820826 3.143860
0.749535 -0.820338 3.141770
0.739525 -0.818873 3.135970
0.730491 -0.818140 3.132960
0.723411 -0.819849 3.138990
0.716819 -0.822047 3.147800
0.708518 -0.822535 3.148960
0.699484 -0.821558 3.145950
0.690695 -0.821558 3.144790
0.685812 -0.825709 3.160790
0.678976 -0.827662 3.168910
0.672872 -0.830836 3.180970
0.665304 -0.832057 3.184910
0.658711 -0.834742 3.194890
0.652608 -0.838160 3.207870
0.646016 -0.840846 3.217850
0.638203 -0.841823 3.221790
0.631611 -0.844752 3.232920
0.625751 -0.848659 3.248000
0.620869 -0.854274 3.268870
0.615986 -0.859401 3.288820
0.609149 -0.862575 3.300880
0.602069 -0.865261 3.310860
0.595477 -0.868679 3.323840
0.591083 -0.875515 3.349820
0.588885 -0.885769 3.388790
0.585467 -0.894314 3.421960
0.577899 -0.897244 3.432860
0.823756 -0.835231 3.166820
0.809107 -0.829371 3.143860
0.797632 -0.826197 3.131800
0.789331 -0.826197 3.131800
0.780541 -0.825953 3.130870
0.769799 -0.823511 3.121820
0.761254 -0.823267 3.120900
0.751976 -0.822535 3.117880
0.743431 -0.822291 3.116950
0.734397 -0.821558 3.113940
0.725120 -0.820826 3.110920
0.718284 -0.822291 3.116950
0.711203 -0.824000 3.122980
0.703635 -0.825220 3.126930
0.695334 -0.825465 3.127850
0.686789 -0.825220 3.126930
0.680685 -0.828150 3.137830
0.674337 -0.830836 3.147800
0.669210 -0.834742 3.162880
0.660665 -0.834742 3.162880
0.655049 -0.838893 3.177950
0.648457 -0.841334 3.187930
0.642842 -0.845241 3.201840
0.635273 -0.846706 3.207870
0.629414 -0.850612 3.221790
0.623066 -0.853786 3.233850
0.617450 -0.857936 3.249860
0.611591 -0.862331 3.265860
0.606708 -0.867702 3.286970
0.600116 -0.871364 3.299950
0.593768 -0.875271 3.314800
0.588885 -0.881375 3.337990
0.585955 -0.890652 3.372780
0.583026 -0.900174 3.408970
0.574725 -0.901639 3.413840
0.826441 -0.837916 3.144790
0.812037 -0.831813 3.121820
0.798120 -0.826197 3.100950
0.788110 -0.824488 3.093990
0.779809 -0.824732 3.094920
0.769799 -0.822779 3.087960
0.759545 -0.820826 3.079840
0.751488 -0.821070 3.080770
0.743431 -0.821314 3.081930
0.735862 -0.822291 3.084950
0.727805 -0.822535 3.085870
0.719748 -0.823023 3.087960
0.712912 -0.824732 3.093990
0.705344 -0.825465 3.096770
0.698019 -0.826930 3.101880
0.689962 -0.827418 3.103960
0.682394 -0.828150 3.106980
0.676290 -0.831324 3.117880
0.670431 -0.834498 3.129940
0.665304 -0.838404 3.144790
0.657247 -0.839137 3.146870
0.651875 -0.843043 3.161950
0.645772 -0.846217 3.173780
0.640400 -0.850612 3.189780
0.632344 -0.851344 3.192800
0.625996 -0.854762 3.204860
0.618915 -0.856716 3.212980
0.613300 -0.861110 3.228980
0.608417 -0.866482 3.248930
0.603290 -0.871853 3.268870
0.598163 -0.877468 3.289980
0.591815 -0.881375 3.303900
0.586932 -0.887478 3.326860
0.583514 -0.896023 3.358870
0.579363 -0.903836 3.387860
0.571062 -0.905057 3.392960
0.843287 -0.846461 3.144790
0.827662 -0.839137 3.117880
0.814234 -0.834010 3.098860
0.800562 -0.828394 3.077990
0.789087 -0.825220 3.065930
0.779809 -0.824244 3.061980
0.772485 -0.825220 3.065930
0.762963 -0.824000 3.060820
0.752953 -0.822047 3.053870
0.743675 -0.820826 3.048990
0.735374 -0.820826 3.048990
0.728294 -0.822047 3.053870
0.721702 -0.824000 3.060820
0.714866 -0.825709 3.066850
0.708518 -0.827906 3.074970
0.700705 -0.828394 3.076830
0.694113 -0.830592 3.084950
0.686300 -0.831324 3.086800
0.678976 -0.832545 3.091900
0.672872 -0.835231 3.101880
0.666524 -0.837916 3.111850
0.660421 -0.840846 3.121820
0.652608 -0.841578 3.124840
0.647237 -0.845729 3.139920
0.642354 -0.850612 3.157770
0.636982 -0.854518 3.172850
0.629414 -0.855983 3.177950
0.621845 -0.857692 3.183980
0.615986 -0.861354 3.197900
0.610614 -0.865993 3.214830
0.605976 -0.871853 3.235940
0.601093 -0.877468 3.256810
0.596210 -0.883328 3.278850
0.591327 -0.889431 3.300880
0.587176 -0.896756 3.327790
0.583514 -0.905057 3.358870
0.577410 -0.909696 3.375800
0.832301 -0.843776 3.103960
0.817652 -0.837184 3.079840
0.803735 -0.831568 3.058970
0.791772 -0.827662 3.044820
0.782983 -0.826930 3.041800
0.774682 -0.826930 3.041800
0.767846 -0.828394 3.046910
0.758568 -0.827418 3.042960
0.748558 -0.825465 3.035770
0.738548 -0.823267 3.027890
0.728538 -0.821314 3.020930
0.721946 -0.823023 3.026960
0.713645 -0.823023 3.026960
0.707541 -0.825465 3.035770
0.701193 -0.827418 3.042960
0.694845 -0.829859 3.051780
0.688253 -0.831813 3.058970
0.680929 -0.833033 3.062910
0.674337 -0.835231 3.070800
0.668966 -0.838893 3.083790
0.663106 -0.842067 3.095850
0.656758 -0.844508 3.104890
0.648946 -0.845485 3.107910
0.642598 -0.848170 3.117880
0.637471 -0.852565 3.133880
0.632099 -0.856716 3.148960
0.625751 -0.859645 3.159860
0.618671 -0.861599 3.166820
0.613056 -0.865993 3.182820
0.608661 -0.872097 3.204860
0.604511 -0.878445 3.228980
0.599139 -0.883572 3.246840
0.595477 -0.891140 3.274900
0.591571 -0.898709 3.302970
0.587909 -0.906766 3.331960
0.583270 -0.913602 3.356780
0.574969 -0.914823 3.361880
0.821070 -0.840602 3.061980
0.808130 -0.835719 3.043890
0.794702 -0.830348 3.024870
0.783959 -0.827662 3.014900
0.776147 -0.827906 3.015830
0.768090 -0.828150 3.015830
0.760521 -0.828639 3.017910
0.750511 -0.826685 3.010960
0.741966 -0.826197 3.008870
0.732688 -0.824732 3.004000
0.723411 -0.823756 2.999820
0.715354 -0.823756 2.999820
0.707297 -0.823756 2.999820
0.701193 -0.825953 3.007940
0.695578 -0.829127 3.018840
0.689230 -0.831324 3.026960
0.682638 -0.833277 3.033920
0.676290 -0.835475 3.041800
0.670675 -0.838893 3.053870
0.665059 -0.842067 3.065930
0.659200 -0.845485 3.077990
0.653340 -0.848415 3.088890
0.646504 -0.850368 3.095850
0.638936 -0.851588 3.099790
0.633076 -0.855007 3.111850
0.628437 -0.860134 3.130870
0.623066 -0.864528 3.146870
0.616962 -0.867946 3.158930
0.611103 -0.871853 3.172850
0.606220 -0.876980 3.191870
0.602313 -0.884060 3.216920
0.597186 -0.889187 3.235940
0.593524 -0.897244 3.264930
0.590350 -0.905789 3.295780
0.587909 -0.916044 3.332890
0.581805 -0.920438 3.348890
0.817896 -0.837184 3.019770
0.805933 -0.833277 3.005850
0.797143 -0.832545 3.002840
0.786157 -0.829371 2.991940
0.777123 -0.828394 2.987990
0.768334 -0.827906 2.985910
0.760033 -0.827662 2.984980
0.751488 -0.826930 2.982890
0.742454 -0.825953 2.978950
0.734153 -0.825709 2.977790
0.726096 -0.825465 2.976860
0.717307 -0.824732 2.973850
0.709738 -0.825220 2.975930
0.701926 -0.825465 2.976860
0.695578 -0.827418 2.983820
0.688742 -0.829127 2.989850
0.681661 -0.830348 2.993790
0.674825 -0.832057 2.999820
0.668966 -0.834742 3.009800
0.663839 -0.838404 3.022790
0.658223 -0.841823 3.034850
0.653096 -0.845729 3.048990
0.649678 -0.852077 3.071960
0.643330 -0.854518 3.080770
0.636494 -0.856716 3.087960
0.630146 -0.859401 3.097930
0.625996 -0.865261 3.118810
0.620869 -0.869900 3.135970
0.615009 -0.873562 3.148960
0.608905 -0.877224 3.161950
0.603778 -0.882107 3.178880
0.599872 -0.888943 3.203930
0.594745 -0.894314 3.222950
0.591327 -0.902615 3.252870
0.588885 -0.912381 3.287890
0.585711 -0.921659 3.320830
0.804956 -0.831813 2.971990
0.794946 -0.829859 2.964800
0.785913 -0.828883 2.960860
0.777123 -0.827906 2.957840
0.769555 -0.828394 2.958770
0.761742 -0.828639 2.959930
0.753929 -0.828883 2.960860
0.746605 -0.829371 2.962940
0.737327 -0.828150 2.957840
0.729026 -0.827906 2.956910
0.719993 -0.826685 2.952970
0.712912 -0.827662 2.955990
0.704856 -0.827662 2.955990
0.698019 -0.829127 2.960860
0.691183 -0.830592 2.965960
0.684347 -0.831813 2.970830
0.677023 -0.832789 2.973850
0.670919 -0.834986 2.981960
0.665548 -0.838404 2.993790
0.659688 -0.841334 3.004000
0.652852 -0.843043 3.009800
0.646504 -0.845241 3.017910
0.637471 -0.855007 3.052940
0.632832 -0.860134 3.070800
0.627705 -0.864284 3.085870
0.622578 -0.868923 3.101880
0.617206 -0.873318 3.117880
0.612568 -0.878689 3.136900
0.607196 -0.883328 3.152900
0.602313 -0.888699 3.171920
0.597186 -0.893826 3.189780
0.592303 -0.899441 3.209960
0.588885 -0.907498 3.238950
0.586200 -0.917020 3.272820
0.583026 -0.926298 3.305980
0.797388 -0.832057 2.943930
0.788598 -0.831080 2.940910
0.780297 -0.830836 2.939980
0.772240 -0.830592 2.938820
0.764428 -0.830836 2.939980
0.757103 -0.831568 2.941840
0.749535 -0.832057 2.943930
0.741966 -0.832301 2.944850
0.732688 -0.831080 2.939980
0.723655 -0.829615 2.934880
0.715354 -0.829371 2.933950
0.708518 -0.830592 2.937890
0.701682 -0.831813 2.943000
0.694845 -0.833033 2.946940
0.687033 -0.833277 2.947870
0.678976 -0.833033 2.946940
0.671407 -0.833766 2.948800
0.664815 -0.835475 2.954830
0.659688 -0.839137 2.967820
0.647969 -0.844752 2.987990
0.628193 -0.861843 3.047830
0.623554 -0.866970 3.065930
0.608173 -0.880886 3.114870
0.605243 -0.888943 3.142930
0.600360 -0.894314 3.161950
0.596210 -0.900906 3.184910
0.591571 -0.907254 3.206950
0.588641 -0.916044 3.237790
0.584979 -0.924100 3.266790
0.583514 -0.935820 3.307840
0.801050 -0.835719 2.928850
0.793237 -0.835719 2.928850
0.784692 -0.834986 2.926990
0.776391 -0.834498 2.924910
0.768578 -0.834498 2.924910
0.760277 -0.834254 2.923980
0.752953 -0.834742 2.925830
0.745872 -0.835719 2.928850
0.737815 -0.835719 2.928850
0.728050 -0.833522 2.920960
0.719016 -0.832057 2.915860
0.710471 -0.831568 2.913770
0.703879 -0.833033 2.918880
0.697775 -0.834986 2.925830
0.690939 -0.836451 2.930940
0.683370 -0.836695 2.931860
0.675558 -0.837184 2.932790
0.668722 -0.838160 2.936970
0.662374 -0.840602 2.944850
0.656026 -0.842555 2.951810
0.604999 -0.884548 3.097930
0.602069 -0.892605 3.126000
0.598407 -0.899930 3.151980
0.594745 -0.907498 3.177950
0.591815 -0.916044 3.207870
0.588153 -0.924100 3.235940
0.798120 -0.840358 2.917950
0.789087 -0.839137 2.913770
0.781518 -0.839625 2.914930
0.773461 -0.839137 2.913770
0.764916 -0.838649 2.911920
0.756127 -0.837428 2.907970
0.748558 -0.837916 2.908900
0.740745 -0.837916 2.908900
0.606220 -0.882351 3.061980
0.602313 -0.889187 3.084950
0.599384 -0.897244 3.112780
0.595477 -0.903836 3.135970
0.594012 -0.914823 3.173780
0.591815 -0.924589 3.207870
0.587909 -0.932157 3.233850
0.580828 -0.935087 3.243820
0.607196 -0.880154 3.025800
0.604755 -0.888699 3.054790
0.601093 -0.895291 3.077990
0.597430 -0.902615 3.102800
0.594501 -0.910916 3.130870
0.593768 -0.923124 3.172850
0.591083 -0.932157 3.203930
0.586444 -0.938994 3.226890
0.607929 -0.877712 2.989850
0.606220 -0.886990 3.020930
0.603046 -0.894314 3.045980
0.598895 -0.900418 3.066850
0.595477 -0.907987 3.092830
0.592792 -0.917020 3.122980
0.592059 -0.928983 3.163810
0.590106 -0.939238 3.198830
0.585467 -0.945830 3.220860
0.606952 -0.884304 2.984980
0.605487 -0.894070 3.017910
0.601825 -0.900906 3.040880
0.597919 -0.907498 3.062910
0.594501 -0.915067 3.087960
0.592303 -0.924345 3.119970
0.590838 -0.935331 3.156850
0.605487 -0.890164 2.977790
0.604999 -0.901639 3.015830
0.600604 -0.907254 3.034850
0.597186 -0.914579 3.058970
0.594256 -0.922636 3.085870
0.593036 -0.934111 3.123910
0.591327 -0.944853 3.159860
0.588885 -0.954863 3.192800
0.604266 -0.896512 2.971990
0.603534 -0.907743 3.008870
0.600116 -0.914579 3.031830
0.597674 -0.923368 3.060820
0.595721 -0.933378 3.093990
0.594745 -0.945097 3.132960
0.593768 -0.971221 3.218780
0.605487 -0.894314 2.938820
0.604022 -0.904080 2.970830
0.602557 -0.914335 3.004000
0.599139 -0.921171 3.026960
0.597186 -0.930937 3.058970
0.594745 -0.940214 3.088890
0.595721 -0.955351 3.138990
0.604755 -0.901395 2.935810
0.603778 -0.911893 2.969900
0.601581 -0.920682 2.998900
0.599139 -0.929472 3.026960
0.597186 -0.939238 3.058970
0.595721 -0.949980 3.093990
0.596942 -0.979522 3.189780
0.603534 -0.907498 2.929780
0.603534 -0.919462 2.968970
0.601581 -0.928983 2.998900
0.599628 -0.938505 3.029980
0.597430 -0.948027 3.060820
0.595477 -0.958281 3.093990
0.602557 -0.913846 2.924910
0.602557 -0.926054 2.963870
0.600848 -0.936064 2.995880
0.600604 -0.948271 3.034850
0.598651 -0.958281 3.066850
0.596210 -0.967559 3.096770
0.592303 -0.975127 3.120900
0.602313 -0.921415 2.923980
0.602313 -0.933622 2.962940
0.601825 -0.945341 2.999820
0.601581 -0.958037 3.039950
0.599384 -0.967803 3.070800
0.596210 -0.976348 3.097930
0.602313 -0.929228 2.923980
0.602313 -0.941679 2.962940
0.602313 -0.954375 3.002840
0.600848 -0.964873 3.035770
0.599139 -0.975616 3.069870
0.597919 -0.987579 3.106980
0.602069 -0.936796 2.922820
0.603046 -0.950957 2.966890
0.603046 -0.963652 3.006780
0.600848 -0.973418 3.036930
0.598651 -0.982940 3.066850
0.603534 -0.946806 2.929780
0.604266 -0.960723 2.972920
0.603778 -0.972930 3.009800
0.601825 -0.983184 3.041800
0.598407 -0.990997 3.065930
0.604511 -0.944121 2.896840
0.604266 -0.956084 2.933950
0.604755 -0.969756 2.975930
0.603778 -0.980987 3.009800
0.601337 -0.990509 3.038790
0.604755 -0.952422 2.898930
0.603778 -0.963408 2.931860
0.604755 -0.977569 2.974770
0.603534 -0.989044 3.009800
0.600848 -0.997833 3.036930
0.605731 -0.961699 2.902870
0.604755 -0.972686 2.935810
0.604755 -0.985626 2.974770
0.603290 -0.996368 3.007940
0.600848 -1.006130 3.036930
0.606220 -0.970489 2.905890
0.605976 -0.982452 2.941840
0.605731 -0.995148 2.979880
0.604022 -1.005890 3.011880
0.607196 -0.980010 2.910990
0.607196 -0.992462 2.947870
0.606952 -1.005650 2.986830
0.604266 -1.014440 3.012810
0.608173 -0.989288 2.914930
0.606952 -1.000030 2.946940
0.605487 -1.011260 2.979880
0.608905 -0.998321 2.918880
0.606220 -1.006870 2.943930
0.604511 -1.017610 2.974770
0.609638 -1.007350 2.921890
0.606220 -1.014920 2.943930
0.609882 -1.015660 2.922820
0.605243 -1.021030 2.938820
0.609394 -1.022740 2.920960
0.608417 -1.029080 2.916790
