-0.281991 1.156530 2.494890
-0.288583 1.155550 2.492800
-0.295175 1.155310 2.491870
-0.301767 1.155310 2.491870
-0.308359 1.154820 2.490950
-0.314707 1.152870 2.486770
-0.321299 1.152380 2.485840
-0.328867 1.155800 2.492800
-0.336436 1.158480 2.498830
-0.343028 1.157990 2.497900
-0.349132 1.155310 2.491870
-0.355480 1.154330 2.489790
-0.362072 1.154090 2.488860
-0.368908 1.154090 2.488860
-0.375011 1.152620 2.485840
-0.382580 1.155060 2.490950
-0.389172 1.154580 2.489790
-0.396741 1.156770 2.494890
-0.402600 1.154090 2.488860
-0.409680 1.155060 2.490950
-0.416272 1.154580 2.489790
-0.423353 1.155550 2.491870
-0.429945 1.155060 2.490950
-0.437025 1.156040 2.492800
-0.444349 1.157510 2.495820
-0.451430 1.158970 2.498830
-0.457778 1.157510 2.495820
-0.464614 1.157510 2.495820
-0.471206 1.157750 2.495820
-0.478774 1.159460 2.499990
-0.485122 1.158730 2.497900
-0.491226 1.156770 2.493960
-0.496353 1.153110 2.485840
-0.502945 1.152620 2.484910
-0.509537 1.152870 2.484910
-0.517106 1.154090 2.487930
-0.525163 1.157510 2.494890
-0.532731 1.158970 2.497900
-0.539323 1.158970 2.497900
-0.545183 1.156770 2.492800
-0.551042 1.154820 2.488860
-0.557634 1.154330 2.487930
-0.564470 1.155060 2.488860
-0.571795 1.156040 2.490950
-0.578875 1.157020 2.492800
-0.584735 1.155060 2.488860
-0.591327 1.154580 2.487930
-0.604511 1.154330 2.486770
-0.610859 1.153360 2.484910
-0.617206 1.152620 2.482830
-0.622333 1.149940 2.476800
-0.629902 1.151400 2.479810
-0.636494 1.150910 2.478880
-0.645039 1.154330 2.485840
-0.652364 1.155310 2.487930
-0.658711 1.154820 2.486770
-0.665304 1.154330 2.485840
-0.673116 1.156290 2.489790
-0.678732 1.154580 2.485840
-0.683126 1.150430 2.476800
-0.690939 1.152380 2.480970
-0.700461 1.157020 2.490950
-0.709738 1.160920 2.498830
-0.715110 1.158730 2.493960
-0.718772 1.153600 2.482830
-0.723655 1.150910 2.476800
-0.729759 1.150180 2.474940
-0.740013 1.155310 2.485840
-0.747826 1.157260 2.489790
-0.756127 1.159700 2.494890
-0.762230 1.158480 2.491870
-0.769799 1.159950 2.494890
-0.776147 1.158970 2.492800
-0.783471 1.160190 2.494890
-0.791284 1.161660 2.497900
-0.796655 1.159460 2.492800
-0.802515 1.157990 2.489790
-0.809595 1.158730 2.490950
-0.818873 1.162140 2.497900
-0.823267 1.158970 2.490950
-0.831568 1.160920 2.494890
-0.836451 1.158240 2.488860
-0.843287 1.158240 2.488860
-0.847926 1.155800 2.482830
-0.856960 1.158730 2.488860
-0.864772 1.160190 2.491870
-0.870632 1.158970 2.488860
-0.875759 1.156770 2.483990
-0.882595 1.156770 2.483990
-0.890408 1.158480 2.486770
-0.894559 1.154820 2.478880
-0.900174 1.153600 2.475870
-0.957793 1.166300 2.500920
-0.966338 1.168490 2.504860
1.359660 1.187540 2.526900
1.319380 1.182410 2.520870
1.300580 1.171670 2.498830
1.291790 1.182650 2.524810
0.988067 1.160190 2.500920
0.983428 1.162630 2.506950
0.978790 1.165320 2.512980
0.969268 1.161900 2.505790
0.960723 1.159950 2.501850
0.954863 1.161170 2.504860
0.948759 1.161900 2.506950
0.942412 1.162630 2.508800
0.933378 1.159700 2.502770
0.927763 1.161410 2.506950
0.922391 1.163120 2.510890
0.918729 1.167030 2.519940
0.910916 1.166050 2.517850
0.904324 1.166300 2.518780
0.897000 1.165810 2.517850
0.889187 1.164100 2.514840
0.876980 1.157020 2.499990
0.869411 1.156040 2.497900
0.864284 1.158240 2.502770
0.858913 1.160440 2.507880
0.851100 1.158970 2.504860
0.843532 1.157750 2.502770
0.837184 1.158730 2.504860
0.831080 1.159460 2.506950
0.827906 1.164340 2.517850
0.821314 1.164830 2.518780
0.812281 1.161900 2.512980
0.802271 1.157020 2.502770
0.794458 1.155550 2.499990
0.788110 1.156530 2.501850
0.780541 1.155060 2.498830
0.774926 1.156770 2.502770
0.768578 1.157510 2.504860
0.761498 1.157020 2.503930
0.753929 1.156040 2.501850
0.747093 1.155800 2.501850
0.740501 1.156290 2.502770
0.733665 1.156040 2.502770
0.726341 1.155060 2.500920
0.719260 1.154580 2.499990
0.713157 1.155800 2.502770
0.706809 1.156290 2.503930
0.700461 1.157020 2.505790
0.692892 1.155800 2.502770
0.686300 1.156040 2.503930
0.678243 1.154090 2.499990
0.670675 1.152620 2.496980
0.662618 1.150430 2.491870
0.655782 1.150180 2.491870
0.651631 1.154820 2.501850
0.646504 1.157990 2.508800
0.638447 1.155550 2.503930
0.631367 1.155060 2.502770
0.622578 1.151400 2.494890
0.616962 1.153600 2.499990
0.609638 1.152130 2.496980
0.604755 1.155800 2.504860
0.593036 1.146520 2.484910
0.588641 1.151160 2.494890
0.582781 1.152870 2.498830
0.576189 1.153360 2.499990
0.568377 1.150910 2.494890
0.560564 1.148470 2.489790
0.553728 1.148470 2.489790
0.548112 1.150670 2.494890
0.540300 1.148470 2.489790
0.533952 1.149690 2.492800
0.527848 1.150670 2.494890
0.521989 1.152870 2.499990
0.513199 1.148230 2.489790
0.505875 1.146760 2.486770
0.499771 1.148230 2.489790
0.493423 1.149450 2.492800
0.485855 1.147740 2.488860
0.479507 1.147980 2.489790
0.474380 1.152130 2.498830
0.467299 1.151160 2.496980
0.459731 1.149450 2.492800
0.451674 1.146030 2.485840
0.446303 1.149690 2.493960
0.440199 1.151160 2.496980
0.434339 1.153360 2.501850
0.427259 1.152380 2.499990
0.419691 1.150670 2.495820
0.412610 1.149690 2.493960
0.405286 1.147740 2.489790
0.399182 1.149690 2.493960
0.392102 1.148720 2.491870
0.385510 1.149450 2.493960
0.378185 1.147740 2.489790
0.371838 1.148720 2.491870
0.365001 1.148230 2.490950
0.358654 1.149450 2.493960
0.352062 1.150430 2.495820
0.345470 1.150910 2.496980
0.339122 1.152130 2.499990
0.332774 1.153110 2.501850
0.325449 1.151650 2.498830
0.318613 1.151160 2.497900
0.311533 1.149940 2.494890
0.304941 1.150670 2.496980
0.298349 1.151650 2.498830
0.291513 1.151160 2.497900
0.284433 1.149200 2.493960
0.277596 1.148960 2.492800
0.271249 1.151160 2.497900
0.265145 1.153840 2.503930
0.258309 1.153360 2.502770
0.251473 1.153360 2.502770
0.244392 1.151160 2.497900
0.238044 1.153360 2.502770
0.231208 1.153840 2.503930
0.224372 1.152380 2.500920
0.217536 1.152380 2.500920
0.210944 1.152870 2.501850
0.204596 1.155310 2.506950
0.197272 1.151890 2.499990
0.190191 1.150670 2.496980
0.182623 1.146030 2.486770
0.176031 1.146760 2.488860
0.169683 1.148720 2.492800
0.163335 1.151890 2.499990
0.156743 1.153360 2.502770
0.150151 1.153840 2.503930
0.143315 1.154580 2.505790
0.136479 1.152380 2.500920
0.129398 1.150430 2.496980
0.122806 1.151400 2.498830
0.115970 1.151890 2.499990
0.109378 1.151890 2.499990
0.102542 1.152870 2.501850
0.095950 1.154580 2.505790
0.089358 1.155060 2.506950
0.082278 1.153360 2.502770
0.075442 1.151400 2.498830
0.068606 1.151400 2.498830
0.062014 1.151400 2.498830
0.055177 1.152870 2.501850
0.048341 1.151400 2.498830
0.041749 1.152380 2.500920
0.034913 1.152380 2.500920
0.028321 1.153840 2.503930
0.021485 1.151400 2.498830
0.014649 1.152380 2.500920
0.007813 1.152380 2.500920
0.001221 1.152870 2.501850
-0.005371 1.151890 2.499990
-0.012207 1.152380 2.500920
-0.018799 1.151400 2.498830
-0.025635 1.150430 2.496980
-0.032228 1.149690 2.494890
-0.039064 1.150430 2.496980
-0.045900 1.149940 2.495820
-0.052736 1.150910 2.497900
-0.059572 1.152870 2.501850
-0.066408 1.153840 2.503930
-0.073244 1.154580 2.505790
-0.079836 1.153360 2.502770
-0.086673 1.154580 2.505790
-0.093509 1.155060 2.506950
-0.100345 1.154580 2.505790
-0.106937 1.154090 2.504860
-0.113529 1.152380 2.500920
-0.120609 1.154580 2.505790
-0.127201 1.153840 2.503930
-0.134037 1.155060 2.506950
-0.140629 1.152870 2.501850
-0.147465 1.152380 2.500920
-0.154302 1.153360 2.502770
-0.160894 1.153360 2.502770
-0.167974 1.154820 2.505790
-0.174566 1.153840 2.503930
-0.181402 1.154330 2.504860
-0.187750 1.151890 2.499990
-0.194586 1.152380 2.500920
-0.201666 1.153840 2.503930
-0.208747 1.155550 2.507880
-0.215339 1.154820 2.505790
-0.222419 1.155800 2.507880
-0.229011 1.154820 2.505790
-0.235847 1.154820 2.505790
-0.242439 1.154330 2.504860
-0.249031 1.153840 2.503930
-0.255623 1.152870 2.501850
-0.262703 1.153840 2.503930
-0.269295 1.153360 2.502770
-0.276376 1.154330 2.504860
-0.282723 1.153110 2.501850
-0.289560 1.153110 2.501850
-0.296152 1.153110 2.501850
-0.302988 1.152620 2.500920
-0.309091 1.150670 2.496980
-0.315683 1.149940 2.494890
-0.322520 1.150430 2.495820
-0.330088 1.153110 2.501850
-0.337657 1.155310 2.506950
-0.344249 1.155060 2.505790
-0.351085 1.155060 2.505790
-0.357433 1.153600 2.502770
-0.364025 1.153600 2.502770
-0.370373 1.151890 2.498830
-0.376720 1.150910 2.496980
-0.384533 1.154090 2.503930
-0.391125 1.153840 2.502770
-0.398450 1.155060 2.505790
-0.404553 1.153360 2.501850
-0.411634 1.153840 2.502770
-0.418470 1.154330 2.503930
-0.425062 1.153840 2.502770
-0.432386 1.155310 2.505790
-0.439467 1.156290 2.507880
-0.446547 1.156770 2.508800
-0.453871 1.157990 2.511820
-0.459487 1.154820 2.504860
-0.466567 1.155800 2.506950
-0.472671 1.154580 2.503930
-0.480728 1.157260 2.509960
-0.486831 1.156040 2.506950
-0.492447 1.152870 2.499990
-0.497085 1.148230 2.489790
-0.504898 1.150430 2.494890
-0.512711 1.152870 2.499990
-0.520035 1.154330 2.502770
-0.526627 1.153840 2.501850
-0.533952 1.154820 2.503930
-0.540788 1.154820 2.503930
-0.547380 1.154820 2.503930
-0.553728 1.154090 2.501850
-0.559832 1.152620 2.498830
-0.566424 1.152380 2.497900
-0.573260 1.152380 2.497900
-0.581805 1.155550 2.504860
-0.588885 1.156530 2.506950
-0.595965 1.157020 2.507880
-0.601581 1.154820 2.502770
-0.607685 1.153600 2.499990
-0.613788 1.152130 2.496980
-0.619892 1.150910 2.493960
-0.625751 1.149450 2.490950
-0.632588 1.149690 2.490950
-0.638447 1.147740 2.486770
-0.646260 1.149690 2.490950
-0.654561 1.152620 2.496980
-0.661885 1.153600 2.498830
-0.669698 1.155550 2.502770
-0.677023 1.156530 2.504860
-0.683859 1.156530 2.504860
-0.686544 1.149690 2.489790
-0.693625 1.150180 2.490950
-0.702414 1.153600 2.497900
-0.711203 1.156770 2.504860
-0.717063 1.155060 2.500920
-0.719993 1.149200 2.487930
-0.725120 1.146520 2.481900
-0.732688 1.147980 2.484910
-0.742454 1.152620 2.494890
-0.750267 1.154090 2.497900
-0.757103 1.154090 2.497900
-0.764916 1.155550 2.500920
-0.772973 1.157510 2.504860
-0.779077 1.156770 2.502770
-0.787133 1.158730 2.506950
-0.794946 1.160190 2.509960
-0.800317 1.157990 2.504860
-0.807154 1.158240 2.504860
-0.814722 1.159220 2.506950
-0.821314 1.158730 2.505790
-0.827174 1.157510 2.502770
-0.833033 1.156290 2.499990
-0.840846 1.157750 2.502770
-0.844997 1.154090 2.494890
-0.850368 1.152130 2.489790
-0.860134 1.156290 2.498830
-0.870632 1.161170 2.508800
-0.873562 1.156040 2.497900
-0.879910 1.155310 2.495820
-0.886013 1.154580 2.493960
-0.896023 1.158730 2.502770
-0.959990 1.162140 2.506950
-0.969756 1.165560 2.513910
1.358200 1.185340 2.538960
1.348670 1.182900 2.534780
1.324750 1.168000 2.503930
1.318890 1.168980 2.506950
1.309610 1.166780 2.502770
1.318400 1.180700 2.533850
1.310830 1.180460 2.533850
1.302040 1.178500 2.530840
1.293980 1.177770 2.529910
1.270060 1.174840 2.525970
1.027620 1.167270 2.529910
0.990265 1.155800 2.506950
0.986114 1.158970 2.513910
0.981475 1.161410 2.519940
0.974883 1.161900 2.520870
0.967315 1.161170 2.519940
0.963164 1.164100 2.526900
0.956572 1.164590 2.527820
0.947539 1.162140 2.522950
0.937529 1.158240 2.514840
0.934355 1.162630 2.524810
0.929472 1.165320 2.530840
0.924100 1.167030 2.534780
0.915555 1.164830 2.530840
0.907498 1.163370 2.527820
0.900174 1.162880 2.526900
0.891140 1.159950 2.520870
0.881619 1.156530 2.513910
0.874050 1.155550 2.511820
0.869167 1.158240 2.517850
0.864772 1.161170 2.524810
0.855983 1.158730 2.519940
0.847682 1.156770 2.515990
0.841090 1.157260 2.516920
0.835963 1.159460 2.521790
0.833033 1.164830 2.533850
0.824976 1.163370 2.530840
0.815210 1.158970 2.521790
0.805689 1.155310 2.513910
0.798364 1.154580 2.512980
0.791528 1.154580 2.512980
0.783715 1.153110 2.509960
0.779077 1.156290 2.516920
0.772240 1.156040 2.516920
0.765648 1.156530 2.517850
0.756859 1.153600 2.511820
0.750267 1.154090 2.512980
0.744163 1.154820 2.514840
0.737815 1.155550 2.516920
0.729270 1.152870 2.510890
0.721946 1.152380 2.509960
0.715110 1.152130 2.509960
0.709006 1.153110 2.511820
0.702414 1.153360 2.512980
0.696310 1.154820 2.515990
0.690695 1.157020 2.520870
0.683126 1.155550 2.517850
0.674825 1.153110 2.512980
0.666280 1.149940 2.505790
0.660176 1.151160 2.508800
0.655293 1.154330 2.515990
0.648946 1.155310 2.517850
0.639912 1.151400 2.509960
0.632344 1.149940 2.506950
0.626484 1.151890 2.510890
0.619648 1.151650 2.510890
0.611103 1.148470 2.503930
0.601581 1.142860 2.491870
0.599872 1.152870 2.513910
0.590106 1.147010 2.500920
0.583758 1.147740 2.502770
0.576678 1.147250 2.501850
0.569353 1.146280 2.499990
0.563005 1.146760 2.500920
0.557878 1.150430 2.508800
0.551286 1.150910 2.509960
0.543229 1.147980 2.503930
0.536149 1.147500 2.502770
0.530290 1.149200 2.506950
0.523209 1.148720 2.505790
0.515397 1.146520 2.500920
0.508560 1.146520 2.500920
0.502945 1.148720 2.505790
0.496109 1.148720 2.505790
0.488296 1.146280 2.500920
0.481704 1.146760 2.501850
0.476333 1.149940 2.508800
0.468764 1.148470 2.505790
0.460707 1.145300 2.498830
0.453139 1.143100 2.493960
0.448256 1.147980 2.504860
0.442152 1.149690 2.508800
0.436048 1.151160 2.511820
0.428724 1.150180 2.509960
0.421400 1.148720 2.506950
0.414075 1.147010 2.502770
0.406751 1.145050 2.498830
0.400159 1.146030 2.500920
0.393078 1.145050 2.498830
0.386975 1.146760 2.502770
0.380139 1.146760 2.502770
0.373547 1.147250 2.503930
0.366710 1.147250 2.503930
0.360363 1.148230 2.505790
0.354015 1.149940 2.509960
0.347179 1.149940 2.509960
0.341075 1.152380 2.514840
0.334239 1.151890 2.513910
0.326914 1.149940 2.509960
0.319590 1.147980 2.505790
0.312754 1.147740 2.504860
0.305918 1.147500 2.504860
0.299326 1.147980 2.505790
0.292489 1.147500 2.504860
0.285409 1.147010 2.503930
0.278817 1.147010 2.503930
0.272225 1.148470 2.506950
0.266121 1.150670 2.511820
0.258797 1.149450 2.508800
0.252205 1.149940 2.509960
0.245613 1.150180 2.510890
0.239265 1.152620 2.515990
0.232185 1.151650 2.513910
0.224616 1.147500 2.504860
0.218024 1.147980 2.505790
0.211676 1.150670 2.511820
0.205329 1.153360 2.517850
0.198248 1.151160 2.512980
0.191168 1.149200 2.508800
0.183843 1.147010 2.503930
0.177252 1.147010 2.503930
0.170415 1.147500 2.504860
0.163823 1.148720 2.507880
0.157231 1.150670 2.511820
0.150639 1.151650 2.513910
0.144047 1.151890 2.514840
0.136723 1.149200 2.508800
0.129887 1.147980 2.505790
0.123295 1.149200 2.508800
0.116459 1.149690 2.509960
0.109867 1.150180 2.510890
0.103030 1.151160 2.512980
0.096194 1.151400 2.513910
0.089602 1.151890 2.514840
0.082522 1.149690 2.509960
0.075930 1.150180 2.510890
0.069094 1.149690 2.509960
0.062258 1.150670 2.511820
0.055422 1.151160 2.512980
0.048586 1.151160 2.512980
0.041993 1.151160 2.512980
0.035157 1.149690 2.509960
0.028321 1.150670 2.511820
0.021485 1.148720 2.507880
0.014649 1.149200 2.508800
0.007813 1.147740 2.505790
0.001221 1.149200 2.508800
-0.005371 1.149200 2.508800
-0.012207 1.150180 2.510890
-0.019043 1.147740 2.505790
-0.025635 1.148230 2.506950
-0.032472 1.147500 2.504860
-0.039308 1.148230 2.506950
-0.046144 1.148230 2.506950
-0.052736 1.148720 2.507880
-0.059816 1.151160 2.512980
-0.066652 1.151160 2.512980
-0.073489 1.151890 2.514840
-0.080081 1.150670 2.511820
-0.087161 1.152870 2.516920
-0.093753 1.151890 2.514840
-0.100589 1.151160 2.512980
-0.107181 1.149690 2.509960
-0.114017 1.150180 2.510890
-0.121097 1.151890 2.514840
-0.127689 1.151160 2.512980
-0.134526 1.151160 2.512980
-0.141118 1.149200 2.508800
-0.147710 1.148720 2.507880
-0.154790 1.149690 2.509960
-0.161626 1.150670 2.511820
-0.168462 1.150670 2.511820
-0.174810 1.147980 2.505790
-0.181646 1.147980 2.505790
-0.188482 1.148470 2.506950
-0.195563 1.150180 2.510890
-0.202643 1.152130 2.514840
-0.209479 1.152620 2.515990
-0.216559 1.153840 2.518780
-0.223395 1.154820 2.520870
-0.230232 1.154820 2.520870
-0.237068 1.153840 2.518780
-0.243416 1.152620 2.515990
-0.250496 1.153840 2.518780
-0.257332 1.153840 2.518780
-0.264412 1.154820 2.520870
-0.270516 1.152130 2.514840
-0.277108 1.151160 2.512980
-0.283700 1.150430 2.510890
-0.290780 1.151160 2.512980
-0.297617 1.151160 2.512980
-0.304453 1.151160 2.512980
-0.310556 1.149450 2.508800
-0.317392 1.148960 2.507880
-0.323740 1.147980 2.505790
-0.331309 1.150910 2.511820
-0.338633 1.152380 2.514840
-0.345958 1.154090 2.518780
-0.352550 1.153600 2.517850
-0.359874 1.154580 2.519940
-0.366222 1.153360 2.516920
-0.372326 1.150910 2.511820
-0.378185 1.148720 2.506950
-0.385754 1.150910 2.511820
-0.392346 1.150180 2.509960
-0.399182 1.150180 2.509960
-0.405530 1.149200 2.507880
-0.412854 1.150670 2.510890
-0.419935 1.151650 2.512980
-0.427015 1.152620 2.514840
-0.434339 1.153840 2.517850
-0.441176 1.153840 2.517850
-0.447768 1.153110 2.515990
-0.454848 1.153600 2.516920
-0.461440 1.153110 2.515990
-0.468276 1.153600 2.516920
-0.474868 1.152620 2.514840
-0.482681 1.155060 2.519940
-0.489029 1.154090 2.517850
-0.494400 1.150910 2.510890
-0.499771 1.147250 2.502770
-0.507584 1.149690 2.507880
-0.515885 1.153360 2.515990
-0.523209 1.154330 2.517850
-0.529801 1.153840 2.516920
-0.536882 1.154330 2.517850
-0.543474 1.153840 2.516920
-0.550310 1.154090 2.516920
-0.555925 1.151650 2.511820
-0.562517 1.151400 2.510890
-0.569109 1.150910 2.509960
-0.576678 1.152380 2.512980
-0.584246 1.153840 2.515990
-0.591815 1.155310 2.518780
-0.599139 1.156040 2.520870
-0.606220 1.156770 2.521790
-0.611835 1.154330 2.516920
-0.618915 1.154820 2.517850
-0.623798 1.151400 2.509960
-0.629658 1.149450 2.505790
-0.635029 1.147250 2.500920
-0.643086 1.149690 2.505790
-0.651875 1.152870 2.512980
-0.658956 1.153360 2.513910
-0.665304 1.152620 2.511820
-0.672628 1.153600 2.513910
-0.680197 1.155060 2.516920
-0.686056 1.153360 2.512980
-0.691183 1.150670 2.506950
-0.698264 1.151160 2.507880
-0.706076 1.152620 2.510890
-0.714133 1.154580 2.514840
-0.721458 1.155550 2.516920
-0.726096 1.151890 2.508800
-0.730735 1.148720 2.501850
-0.737571 1.148720 2.501850
-0.749046 1.155800 2.516920
-0.753685 1.152620 2.509960
-0.760521 1.152870 2.509960
-0.765893 1.150670 2.504860
-0.775903 1.155310 2.514840
-0.785180 1.158970 2.522950
-0.793970 1.161900 2.528980
-0.801050 1.161900 2.528980
-0.804468 1.157020 2.517850
-0.810083 1.155310 2.513910
-0.816675 1.155060 2.512980
-0.826197 1.158730 2.520870
-0.832057 1.157510 2.517850
-0.838649 1.157260 2.516920
-0.843043 1.154090 2.509960
-0.848659 1.152380 2.505790
-0.855007 1.151650 2.503930
-0.865017 1.155800 2.512980
-0.875027 1.159950 2.521790
-0.880154 1.157990 2.516920
-0.884304 1.154330 2.508800
-0.890408 1.153600 2.506950
-0.899930 1.157020 2.513910
-0.904569 1.154330 2.507880
-0.955840 1.158730 2.514840
-0.962432 1.158240 2.513910
-0.969024 1.157990 2.512980
1.397260 1.187540 2.555890
1.371620 1.177770 2.536870
1.376510 1.188020 2.559830
1.366990 1.185830 2.555890
1.351360 1.178260 2.540810
1.340130 1.174600 2.533850
1.333780 1.175330 2.535940
1.324260 1.172890 2.532000
1.320840 1.182410 2.553800
1.314000 1.182410 2.554960
1.297890 1.174110 2.537800
1.287390 1.170930 2.532000
1.275430 1.166540 2.522950
1.031770 1.172890 2.557980
0.995636 1.155310 2.520870
0.988311 1.154580 2.519940
0.981964 1.155310 2.521790
0.978057 1.158730 2.529910
0.970244 1.157750 2.527820
0.967559 1.162630 2.538960
0.960967 1.162880 2.539880
0.953154 1.161900 2.537800
0.942412 1.157020 2.527820
0.936064 1.157990 2.529910
0.929716 1.158730 2.532000
0.921659 1.157020 2.528980
0.913602 1.155550 2.525970
0.908475 1.157750 2.530840
0.900662 1.156770 2.528980
0.893826 1.156530 2.528980
0.885769 1.155060 2.525970
0.880154 1.156770 2.529910
0.873318 1.156530 2.529910
0.867946 1.158730 2.534780
0.862331 1.160440 2.538960
0.852809 1.156770 2.530840
0.844752 1.155310 2.527820
0.837428 1.154580 2.526900
0.833522 1.158730 2.535940
0.825953 1.157510 2.533850
0.816431 1.153840 2.525970
0.809351 1.153840 2.525970
0.801782 1.152620 2.523880
0.795679 1.153600 2.525970
0.786401 1.150180 2.518780
0.781030 1.152380 2.523880
0.773949 1.151890 2.522950
0.767602 1.152620 2.524810
0.758568 1.149450 2.517850
0.752220 1.150180 2.519940
0.746849 1.152380 2.524810
0.740989 1.153840 2.527820
0.733421 1.152870 2.525970
0.725852 1.151650 2.523880
0.719993 1.153110 2.526900
0.713401 1.153360 2.527820
0.705344 1.151650 2.523880
0.697775 1.150430 2.521790
0.691183 1.150910 2.522950
0.684835 1.151890 2.524810
0.677755 1.151160 2.523880
0.670186 1.149940 2.520870
0.664327 1.151650 2.524810
0.657979 1.152380 2.526900
0.651143 1.152380 2.526900
0.642842 1.149940 2.521790
0.636982 1.151890 2.525970
0.631367 1.154090 2.530840
0.623798 1.152620 2.527820
0.614521 1.147980 2.517850
0.605731 1.144320 2.509960
0.599139 1.144810 2.510890
0.593768 1.147500 2.516920
0.584735 1.142860 2.506950
0.577899 1.142610 2.506950
0.572527 1.145790 2.513910
0.567156 1.148470 2.519940
0.562029 1.152130 2.527820
0.554216 1.149940 2.522950
0.546159 1.147500 2.517850
0.538835 1.146520 2.515990
0.532243 1.147010 2.516920
0.525163 1.146520 2.515990
0.517106 1.143350 2.508800
0.510269 1.143350 2.508800
0.504166 1.145050 2.512980
0.498306 1.147250 2.517850
0.491470 1.147250 2.517850
0.484390 1.146280 2.515990
0.477798 1.146760 2.516920
0.469985 1.144320 2.511820
0.462172 1.142120 2.506950
0.454604 1.140170 2.502770
0.449965 1.145300 2.513910
0.443617 1.146520 2.516920
0.437269 1.147980 2.519940
0.430433 1.147500 2.518780
0.422864 1.145540 2.514840
0.416028 1.145540 2.514840
0.407971 1.141880 2.506950
0.401624 1.143350 2.509960
0.393811 1.140170 2.502770
0.387951 1.143350 2.509960
0.382092 1.145540 2.514840
0.375988 1.148230 2.520870
0.368908 1.147250 2.518780
0.362560 1.148720 2.521790
0.355968 1.149200 2.522950
0.348399 1.147250 2.518780
0.341563 1.146760 2.517850
0.334971 1.147250 2.518780
0.328135 1.147740 2.519940
0.320811 1.145300 2.514840
0.314219 1.146760 2.517850
0.307627 1.147250 2.518780
0.301279 1.148960 2.522950
0.294198 1.147980 2.520870
0.286874 1.145790 2.515990
0.280038 1.145300 2.514840
0.273202 1.145300 2.514840
0.266854 1.147500 2.519940
0.259774 1.146280 2.516920
0.253182 1.147010 2.518780
0.246101 1.146520 2.517850
0.239509 1.147500 2.519940
0.232429 1.146280 2.516920
0.225105 1.143350 2.510890
0.218268 1.142860 2.509960
0.211921 1.145300 2.514840
0.205817 1.149200 2.523880
0.198981 1.148470 2.521790
0.192145 1.148960 2.522950
0.185064 1.146520 2.517850
0.178228 1.146520 2.517850
0.171148 1.145300 2.514840
0.164556 1.146030 2.516920
0.157476 1.145540 2.515990
0.150884 1.145540 2.515990
0.144047 1.145050 2.514840
0.136967 1.144810 2.513910
0.130375 1.144810 2.513910
0.123539 1.145540 2.515990
0.116703 1.146030 2.516920
0.110111 1.146520 2.517850
0.103275 1.146520 2.517850
0.096438 1.146030 2.516920
0.089602 1.146030 2.516920
0.082766 1.146030 2.516920
0.075930 1.146520 2.517850
0.069338 1.147010 2.518780
0.062502 1.147500 2.519940
0.055666 1.148230 2.521790
0.048830 1.147980 2.520870
0.041993 1.147010 2.518780
0.035157 1.145540 2.515990
0.028321 1.146520 2.517850
0.021485 1.145540 2.515990
0.014649 1.145540 2.515990
0.008057 1.144320 2.512980
0.001221 1.146030 2.516920
-0.005371 1.147010 2.518780
-0.012207 1.147500 2.519940
-0.019043 1.145050 2.514840
-0.025880 1.145050 2.514840
-0.032472 1.144570 2.513910
-0.039308 1.146030 2.516920
-0.046144 1.145050 2.514840
-0.052980 1.145540 2.515990
-0.059816 1.147010 2.518780
-0.066897 1.148230 2.521790
-0.073733 1.149690 2.524810
-0.080325 1.148720 2.522950
-0.087405 1.150180 2.525970
-0.093997 1.147980 2.520870
-0.100589 1.146030 2.516920
-0.107425 1.145540 2.515990
-0.114505 1.147980 2.520870
-0.121342 1.148230 2.521790
-0.128178 1.148720 2.522950
-0.135014 1.148720 2.522950
-0.141606 1.147500 2.519940
-0.148198 1.146030 2.516920
-0.155278 1.146520 2.517850
-0.162358 1.148720 2.522950
-0.168950 1.148470 2.521790
-0.175298 1.145300 2.514840
-0.181890 1.143350 2.510890
-0.189215 1.146030 2.516920
-0.196783 1.151160 2.527820
-0.203864 1.152380 2.530840
-0.210700 1.152620 2.530840
-0.217536 1.152130 2.529910
-0.224128 1.151650 2.528980
-0.230720 1.150180 2.525970
-0.237556 1.150180 2.525970
-0.244636 1.151160 2.527820
-0.251961 1.153360 2.532930
-0.259041 1.154330 2.534780
-0.265633 1.153600 2.532930
-0.271493 1.148960 2.522950
-0.278085 1.147980 2.520870
-0.284677 1.147500 2.519940
-0.292245 1.149940 2.524810
-0.298837 1.149450 2.523880
-0.305918 1.149940 2.524810
-0.312265 1.148960 2.522950
-0.319590 1.150430 2.525970
-0.326182 1.149450 2.523880
-0.333506 1.150910 2.526900
-0.339854 1.149940 2.524810
-0.346690 1.149450 2.523880
-0.353771 1.150430 2.525970
-0.361339 1.152620 2.530840
-0.367931 1.152380 2.529910
-0.374279 1.150430 2.525970
-0.380627 1.149200 2.522950
-0.387707 1.150180 2.524810
-0.394055 1.148720 2.521790
-0.400891 1.148230 2.520870
-0.407727 1.148230 2.520870
-0.415052 1.149690 2.523880
-0.422132 1.150670 2.525970
-0.429212 1.151650 2.527820
-0.436781 1.152870 2.530840
-0.443861 1.153840 2.532930
-0.449721 1.151160 2.526900
-0.456313 1.150670 2.525970
-0.462905 1.149940 2.523880
-0.469741 1.150430 2.524810
-0.475845 1.148470 2.520870
-0.483169 1.149450 2.522950
-0.490493 1.150910 2.525970
-0.497574 1.151400 2.526900
-0.503433 1.149200 2.521790
-0.510758 1.150180 2.523880
-0.517838 1.150910 2.525970
-0.524918 1.151400 2.526900
-0.531510 1.150670 2.524810
-0.539079 1.152380 2.528980
-0.546159 1.153110 2.529910
-0.553484 1.153840 2.532000
-0.558855 1.150670 2.524810
-0.564226 1.147740 2.517850
-0.571062 1.148230 2.518780
-0.578387 1.149200 2.520870
-0.586200 1.150910 2.524810
-0.593280 1.151400 2.525970
-0.602069 1.155060 2.533850
-0.609638 1.156530 2.536870
-0.615253 1.153840 2.530840
-0.621845 1.153600 2.529910
-0.627216 1.150910 2.523880
-0.633076 1.148960 2.519940
-0.639180 1.147740 2.516920
-0.647725 1.150910 2.523880
-0.656514 1.154330 2.530840
-0.662862 1.153360 2.528980
-0.668477 1.151160 2.523880
-0.675802 1.152130 2.525970
-0.681173 1.149940 2.520870
-0.687277 1.148720 2.517850
-0.694113 1.148720 2.517850
-0.703879 1.153360 2.527820
-0.710471 1.152870 2.526900
-0.717307 1.153110 2.526900
-0.724876 1.154090 2.528980
-0.730491 1.152380 2.524810
-0.735618 1.149690 2.518780
-0.742943 1.150180 2.519940
-0.751244 1.152620 2.524810
-0.757347 1.151160 2.521790
-0.763451 1.150430 2.519940
-0.768822 1.148230 2.514840
-0.777123 1.150180 2.518780
-0.786645 1.154330 2.527820
-0.794214 1.155310 2.529910
-0.801538 1.155800 2.530840
-0.805444 1.151890 2.521790
-0.812525 1.151890 2.521790
-0.818140 1.150180 2.517850
-0.826685 1.152620 2.522950
-0.835475 1.155550 2.528980
-0.843043 1.156530 2.530840
-0.848170 1.153840 2.524810
-0.851588 1.149450 2.514840
-0.857936 1.148720 2.512980
-0.866237 1.150670 2.516920
-0.878933 1.158480 2.533850
-0.888455 1.161900 2.540810
-0.894314 1.160680 2.537800
-0.897732 1.156290 2.527820
-0.903348 1.154580 2.523880
-0.908963 1.152870 2.519940
-0.916532 1.153840 2.521790
-0.923612 1.154090 2.521790
-0.931669 1.155550 2.524810
-0.949980 1.152870 2.517850
-0.957549 1.153840 2.519940
-0.963408 1.152620 2.516920
1.399460 1.182410 2.560990
1.374550 1.173130 2.542900
1.375040 1.179720 2.557980
1.368690 1.180210 2.559830
1.354780 1.174350 2.547770
1.348670 1.175080 2.550790
1.335490 1.169710 2.539880
1.312780 1.162140 2.524810
1.335490 1.188270 2.582790
1.317670 1.178750 2.562850
1.309120 1.177530 2.560990
1.296670 1.172400 2.550790
1.282750 1.166050 2.537800
1.272260 1.163120 2.532000
1.031530 1.165560 2.557980
0.998321 1.151400 2.527820
0.991974 1.152130 2.529910
0.986602 1.153840 2.533850
0.979522 1.153600 2.533850
0.977081 1.158970 2.545920
0.971954 1.160920 2.550790
0.965117 1.161170 2.551950
0.955840 1.158480 2.545920
0.946562 1.155550 2.539880
0.940703 1.156770 2.542900
0.929228 1.151160 2.530840
0.920927 1.149200 2.526900
0.914090 1.149450 2.527820
0.910428 1.153360 2.536870
0.902127 1.151400 2.532930
0.895047 1.151400 2.532930
0.888455 1.151650 2.533850
0.884304 1.155060 2.541970
0.877224 1.155060 2.541970
0.871609 1.156770 2.545920
0.863552 1.155310 2.542900
0.855983 1.154330 2.540810
0.846706 1.150910 2.533850
0.840602 1.152130 2.536870
0.835475 1.154330 2.541970
0.828150 1.153840 2.540810
0.820093 1.152380 2.537800
0.812281 1.150910 2.534780
0.804956 1.150180 2.533850
0.798608 1.151160 2.535940
0.792261 1.151890 2.537800
0.785180 1.151400 2.536870
0.776391 1.148470 2.530840
0.769799 1.148960 2.532000
0.762230 1.147980 2.529910
0.757103 1.150670 2.535940
0.751244 1.152380 2.539880
0.746605 1.155800 2.547770
0.738060 1.153110 2.541970
0.730247 1.151650 2.538960
0.722434 1.150180 2.535940
0.715842 1.150430 2.536870
0.706809 1.147250 2.529910
0.699240 1.145790 2.526900
0.693136 1.147250 2.529910
0.687765 1.149690 2.535940
0.681661 1.151160 2.538960
0.674825 1.151160 2.538960
0.666524 1.148720 2.533850
0.659444 1.148230 2.532930
0.653096 1.148960 2.534780
0.645527 1.147740 2.532000
0.638447 1.147500 2.532000
0.631367 1.147010 2.530840
0.624531 1.147010 2.530840
0.617206 1.146030 2.528980
0.610859 1.147010 2.530840
0.604755 1.148230 2.533850
0.593524 1.139930 2.515990
0.585955 1.138710 2.512980
0.578875 1.138220 2.511820
0.574725 1.143100 2.522950
0.568621 1.144810 2.526900
0.563005 1.147010 2.532000
0.555681 1.146030 2.529910
0.549577 1.147980 2.533850
0.541765 1.145540 2.528980
0.534196 1.144080 2.525970
0.526383 1.141880 2.520870
0.519791 1.142860 2.522950
0.512711 1.141880 2.520870
0.506119 1.142610 2.522950
0.500992 1.146280 2.530840
0.494400 1.147250 2.532930
0.487320 1.146760 2.532000
0.479019 1.143100 2.523880
0.472182 1.143100 2.523880
0.465102 1.142610 2.522950
0.458266 1.142120 2.521790
0.452406 1.144810 2.527820
0.445082 1.143350 2.524810
0.438490 1.144320 2.526900
0.431166 1.142860 2.523880
0.424085 1.141880 2.521790
0.416761 1.140900 2.519940
0.409436 1.139680 2.516920
0.403333 1.141390 2.520870
0.396496 1.140900 2.519940
0.390149 1.142860 2.523880
0.384045 1.145050 2.528980
0.377941 1.146760 2.532930
0.371105 1.146760 2.532930
0.364269 1.146760 2.532930
0.357189 1.146760 2.532930
0.349376 1.143590 2.525970
0.342296 1.142120 2.522950
0.335948 1.144080 2.526900
0.329844 1.146280 2.532000
0.322764 1.145790 2.530840
0.315683 1.144810 2.528980
0.309091 1.146280 2.532000
0.302499 1.146760 2.532930
0.295175 1.144810 2.528980
0.287851 1.142610 2.523880
0.281014 1.142610 2.523880
0.274422 1.144320 2.527820
0.267586 1.144320 2.527820
0.260750 1.143830 2.526900
0.253914 1.143350 2.525970
0.247078 1.144320 2.527820
0.240486 1.145300 2.529910
0.233406 1.144320 2.527820
0.226081 1.141640 2.521790
0.219001 1.140170 2.518780
0.212409 1.141640 2.521790
0.206305 1.145050 2.529910
0.199713 1.146030 2.532000
0.192877 1.146520 2.532930
0.186041 1.146030 2.532000
0.178961 1.145050 2.529910
0.171880 1.142860 2.524810
0.164800 1.142370 2.523880
0.157964 1.142370 2.523880
0.151372 1.142860 2.524810
0.144536 1.142370 2.523880
0.137700 1.142370 2.523880
0.130863 1.142860 2.524810
0.124027 1.143830 2.526900
0.117191 1.142860 2.524810
0.110355 1.142370 2.523880
0.103519 1.141390 2.521790
0.096683 1.141150 2.520870
0.089846 1.141150 2.520870
0.083010 1.141390 2.521790
0.076174 1.143350 2.525970
0.069582 1.143830 2.526900
0.062746 1.144320 2.527820
0.055910 1.145050 2.529910
0.049074 1.146030 2.532000
0.042238 1.144570 2.528980
0.035402 1.142860 2.524810
0.028565 1.143830 2.526900
0.021729 1.143830 2.526900
0.014893 1.142370 2.523880
0.008057 1.141150 2.520870
0.001221 1.141880 2.522950
-0.005371 1.144080 2.527820
-0.012207 1.146030 2.532000
-0.019043 1.144080 2.527820
-0.025880 1.143830 2.526900
-0.032716 1.141880 2.522950
-0.039552 1.144080 2.527820
-0.046388 1.146030 2.532000
-0.053468 1.147010 2.533850
-0.060305 1.146030 2.532000
-0.066897 1.144570 2.528980
-0.073733 1.145050 2.529910
-0.080813 1.146520 2.532930
-0.087649 1.147010 2.533850
-0.094485 1.145540 2.530840
-0.101077 1.144570 2.528980
-0.107913 1.145050 2.529910
-0.114994 1.145540 2.530840
-0.121830 1.145540 2.530840
-0.128422 1.145050 2.529910
-0.135502 1.145540 2.530840
-0.142338 1.146030 2.532000
-0.149174 1.145540 2.530840
-0.156255 1.147010 2.533850
-0.163091 1.147500 2.534780
-0.169927 1.147500 2.534780
-0.176275 1.144320 2.527820
-0.182867 1.142370 2.523880
-0.189947 1.144810 2.528980
-0.198004 1.151160 2.542900
-0.204840 1.151400 2.543830
-0.211432 1.150180 2.540810
-0.218024 1.148470 2.536870
-0.224616 1.147010 2.533850
-0.231452 1.146520 2.532930
-0.238533 1.147980 2.535940
-0.245857 1.149690 2.539880
-0.252937 1.151160 2.542900
-0.259529 1.150180 2.540810
-0.265877 1.147980 2.535940
-0.272225 1.145300 2.529910
-0.279061 1.145300 2.529910
-0.286630 1.147980 2.535940
-0.293466 1.148470 2.536870
-0.300302 1.148470 2.536870
-0.307138 1.147980 2.535940
-0.314219 1.148960 2.537800
-0.321055 1.148960 2.537800
-0.327891 1.148470 2.536870
-0.334727 1.148960 2.537800
-0.341563 1.148470 2.536870
-0.348155 1.147740 2.534780
-0.354747 1.146760 2.532930
-0.362072 1.148470 2.536870
-0.368664 1.147250 2.533850
-0.375011 1.145790 2.530840
-0.381603 1.145540 2.529910
-0.388684 1.146030 2.530840
-0.395520 1.146030 2.530840
-0.402112 1.145050 2.528980
-0.409192 1.145540 2.529910
-0.416761 1.147740 2.534780
-0.423841 1.148230 2.535940
-0.430921 1.148720 2.536870
-0.437513 1.148230 2.535940
-0.444838 1.149690 2.538960
-0.450942 1.147500 2.533850
-0.456801 1.145300 2.528980
-0.464125 1.146030 2.530840
-0.470717 1.145790 2.529910
-0.477309 1.145300 2.528980
-0.484146 1.145300 2.528980
-0.492203 1.147980 2.534780
-0.499527 1.148960 2.536870
-0.506119 1.148470 2.535940
-0.511979 1.146280 2.530840
-0.518815 1.146030 2.529910
-0.525407 1.145540 2.528980
-0.533219 1.147740 2.533850
-0.540788 1.149200 2.536870
-0.548112 1.150180 2.538960
-0.555681 1.151650 2.541970
-0.561052 1.148470 2.534780
-0.567888 1.148470 2.534780
-0.575213 1.149450 2.536870
-0.583270 1.151650 2.541970
-0.588641 1.148960 2.535940
-0.594745 1.147250 2.532000
-0.602069 1.148230 2.533850
-0.610370 1.150910 2.539880
-0.616718 1.150180 2.537800
-0.624531 1.151650 2.540810
-0.630390 1.149690 2.536870
-0.636738 1.148960 2.534780
-0.642598 1.147250 2.530840
-0.651143 1.149940 2.536870
-0.658467 1.150910 2.538960
-0.664571 1.149690 2.535940
-0.670919 1.148720 2.533850
-0.678732 1.150180 2.536870
-0.683370 1.146520 2.528980
-0.689962 1.146280 2.527820
-0.698752 1.149450 2.534780
-0.707785 1.152620 2.541970
-0.714133 1.151890 2.539880
-0.720237 1.150670 2.536870
-0.727805 1.152130 2.539880
-0.735130 1.152620 2.540810
-0.742698 1.153600 2.542900
-0.748802 1.152380 2.539880
-0.755638 1.152380 2.539880
-0.761254 1.150670 2.535940
-0.768822 1.151650 2.537800
-0.772729 1.147250 2.527820
-0.780297 1.148230 2.529910
-0.788842 1.150430 2.534780
-0.796655 1.151890 2.537800
-0.801050 1.148470 2.529910
-0.805689 1.145300 2.522950
-0.815210 1.149200 2.530840
-0.820826 1.147500 2.526900
-0.828883 1.148960 2.529910
-0.837184 1.150670 2.533850
-0.844997 1.152130 2.536870
-0.852077 1.152380 2.536870
-0.855007 1.147010 2.524810
-0.862087 1.147500 2.525970
-0.869900 1.148720 2.527820
-0.883328 1.157510 2.546840
-0.901639 1.154090 2.538960
-0.906034 1.151160 2.532000
-0.922636 1.154580 2.538960
-0.932157 1.157990 2.545920
-0.937040 1.155310 2.539880
-0.941435 1.152380 2.532930
-0.946806 1.150670 2.528980
-0.951201 1.147500 2.521790
-0.958525 1.148230 2.522950
-0.963408 1.145540 2.516920
1.379440 1.170450 2.552870
1.380660 1.177280 2.568880
1.373090 1.176790 2.568880
1.359170 1.170930 2.556820
1.342570 1.162880 2.539880
1.346230 1.171910 2.560990
1.329870 1.163850 2.543830
1.335730 1.175330 2.569800
1.313760 1.162140 2.541970
1.316690 1.170930 2.561920
1.317420 1.177770 2.577920
1.303260 1.171420 2.564930
1.273960 1.157510 2.535940
1.274210 1.170690 2.565860
1.031770 1.158970 2.558900
0.998077 1.152380 2.545920
0.990265 1.151160 2.543830
0.985137 1.153360 2.548930
0.976104 1.150910 2.543830
0.971709 1.153840 2.550790
0.965117 1.154090 2.551950
0.959014 1.155310 2.554960
0.952910 1.156040 2.556820
0.945097 1.155060 2.554960
0.931669 1.147250 2.537800
0.922880 1.144810 2.532930
0.917753 1.147010 2.537800
0.914579 1.151890 2.548930
0.905057 1.148470 2.541970
0.897488 1.147500 2.539880
0.886990 1.151650 2.549860
0.880886 1.152870 2.552870
0.874538 1.153840 2.554960
0.868679 1.155060 2.557980
0.858913 1.151160 2.549860
0.851588 1.150670 2.548930
0.844752 1.150910 2.549860
0.838649 1.151890 2.551950
0.830592 1.150430 2.548930
0.822047 1.147980 2.543830
0.815943 1.149200 2.546840
0.810327 1.150910 2.550790
0.803003 1.150430 2.549860
0.796411 1.150670 2.550790
0.787866 1.148470 2.545920
0.779809 1.147010 2.542900
0.772729 1.146520 2.541970
0.766625 1.147740 2.544990
0.761498 1.150430 2.550790
0.756615 1.153360 2.557980
0.750755 1.155060 2.561920
0.742210 1.152870 2.556820
0.733665 1.149940 2.550790
0.726829 1.150430 2.551950
0.718772 1.148470 2.547770
0.709983 1.145300 2.540810
0.700949 1.142120 2.533850
0.695090 1.143350 2.536870
0.689718 1.146030 2.542900
0.683859 1.147740 2.546840
0.676290 1.146760 2.544990
0.668477 1.144810 2.540810
0.661397 1.144810 2.540810
0.655538 1.146520 2.544990
0.648946 1.147010 2.545920
0.641621 1.146030 2.543830
0.633320 1.143830 2.538960
0.626484 1.143590 2.538960
0.619648 1.143590 2.538960
0.613300 1.145050 2.541970
0.611835 1.154820 2.563770
0.600604 1.146760 2.545920
0.587909 1.135780 2.521790
0.582537 1.138460 2.527820
0.577410 1.142120 2.535940
0.571306 1.143350 2.538960
0.564714 1.143830 2.539880
0.558367 1.145050 2.542900
0.552507 1.146760 2.546840
0.544450 1.144570 2.541970
0.536637 1.142610 2.537800
0.529069 1.141390 2.534780
0.522965 1.142610 2.537800
0.516129 1.142610 2.537800
0.509049 1.142610 2.537800
0.503189 1.144320 2.541970
0.496353 1.144810 2.542900
0.489517 1.144810 2.542900
0.481948 1.143350 2.539880
0.475356 1.143830 2.540810
0.467788 1.141880 2.536870
0.460952 1.142370 2.537800
0.454604 1.143350 2.539880
0.447768 1.143590 2.540810
0.439955 1.141390 2.535940
0.432630 1.139680 2.532000
0.424818 1.137240 2.526900
0.418226 1.138220 2.528980
0.411389 1.138220 2.528980
0.405774 1.141390 2.535940
0.398450 1.139930 2.532930
0.391369 1.139440 2.532000
0.385266 1.141640 2.536870
0.379162 1.143830 2.541970
0.372082 1.143100 2.539880
0.364757 1.142120 2.537800
0.357677 1.141150 2.535940
0.350597 1.140660 2.534780
0.343272 1.138950 2.530840
0.336680 1.139440 2.532000
0.330821 1.143350 2.540810
0.323985 1.142860 2.539880
0.317148 1.142860 2.539880
0.310556 1.144320 2.542900
0.303964 1.145540 2.545920
0.296152 1.141880 2.537800
0.288827 1.140170 2.533850
0.282235 1.141150 2.535940
0.275887 1.143350 2.540810
0.269051 1.142860 2.539880
0.261971 1.142860 2.539880
0.254891 1.141390 2.536870
0.248543 1.143350 2.540810
0.241462 1.143350 2.540810
0.234870 1.143830 2.541970
0.227302 1.140170 2.533850
0.220222 1.139190 2.532000
0.213385 1.139680 2.532930
0.207282 1.143590 2.541970
0.200446 1.144080 2.542900
0.193854 1.145540 2.545920
0.187017 1.145540 2.545920
0.180181 1.146030 2.546840
0.172857 1.142370 2.538960
0.165777 1.140900 2.535940
0.158696 1.140170 2.533850
0.151860 1.139680 2.532930
0.144780 1.138710 2.530840
0.138188 1.139680 2.532930
0.131352 1.140900 2.535940
0.124760 1.142860 2.539880
0.117679 1.141390 2.536870
0.110599 1.139190 2.532000
0.103763 1.137730 2.528980
0.096927 1.139190 2.532000
0.090335 1.141390 2.536870
0.083499 1.142860 2.539880
0.076663 1.142860 2.539880
0.069826 1.142860 2.539880
0.062990 1.141880 2.537800
0.056154 1.144080 2.542900
0.049318 1.145790 2.546840
0.042482 1.146760 2.548930
0.035402 1.143590 2.541970
0.028565 1.143100 2.540810
0.021729 1.140900 2.535940
0.014893 1.139930 2.533850
0.008057 1.139190 2.532000
0.001221 1.140900 2.535940
-0.005371 1.143590 2.541970
-0.012452 1.143590 2.541970
-0.019288 1.142370 2.538960
-0.026124 1.141390 2.536870
-0.032960 1.140420 2.534780
-0.039796 1.142370 2.538960
-0.046632 1.143100 2.540810
-0.053468 1.143590 2.541970
-0.060305 1.143100 2.540810
-0.067385 1.143100 2.540810
-0.074221 1.142860 2.539880
-0.081057 1.143590 2.541970
-0.087893 1.144080 2.542900
-0.094729 1.143590 2.541970
-0.101566 1.143590 2.541970
-0.108402 1.142860 2.539880
-0.115238 1.143100 2.540810
-0.122318 1.143100 2.540810
-0.129154 1.143100 2.540810
-0.135990 1.143100 2.540810
-0.142827 1.144080 2.542900
-0.150151 1.146030 2.546840
-0.157231 1.147250 2.549860
-0.164068 1.147250 2.549860
-0.170904 1.147250 2.549860
-0.177496 1.145540 2.545920
-0.184088 1.144080 2.542900
-0.191412 1.145540 2.545920
-0.198737 1.148230 2.551950
-0.205573 1.147740 2.550790
-0.212165 1.146760 2.548930
-0.218757 1.145050 2.544990
-0.225349 1.144080 2.542900
-0.232185 1.143350 2.540810
-0.239021 1.143830 2.541970
-0.246590 1.147010 2.548930
-0.253670 1.147740 2.550790
-0.260262 1.146520 2.547770
-0.266854 1.144570 2.543830
-0.273202 1.142860 2.539880
-0.280526 1.144320 2.542900
-0.287606 1.145540 2.545920
-0.294443 1.145540 2.545920
-0.301279 1.144810 2.543830
-0.308115 1.144810 2.543830
-0.315439 1.146030 2.546840
-0.322275 1.146520 2.547770
-0.329356 1.147010 2.548930
-0.336192 1.146520 2.547770
-0.342784 1.146030 2.546840
-0.349620 1.145790 2.545920
-0.356456 1.145790 2.545920
-0.363536 1.145790 2.545920
-0.370128 1.145300 2.544990
-0.377453 1.146280 2.546840
-0.383801 1.144810 2.543830
-0.390637 1.144320 2.542900
-0.397473 1.144320 2.542900
-0.404065 1.143590 2.540810
-0.411389 1.144810 2.543830
-0.418470 1.145790 2.545920
-0.425550 1.145790 2.545920
-0.432386 1.145790 2.545920
-0.438978 1.145050 2.543830
-0.446547 1.147250 2.548930
-0.452895 1.145540 2.544990
-0.458998 1.143830 2.540810
-0.466079 1.144080 2.541970
-0.472671 1.143830 2.540810
-0.479995 1.144810 2.542900
-0.486099 1.142860 2.538960
-0.494400 1.146030 2.545920
-0.501724 1.147010 2.547770
-0.508072 1.146030 2.545920
-0.514664 1.145300 2.543830
-0.521256 1.144320 2.541970
-0.527848 1.144080 2.540810
-0.535173 1.144810 2.542900
-0.542985 1.146760 2.546840
-0.551042 1.149450 2.552870
-0.559343 1.152130 2.558900
-0.565447 1.150430 2.554960
-0.572283 1.150430 2.554960
-0.578875 1.149690 2.552870
-0.586444 1.151160 2.555890
-0.592547 1.149200 2.551950
-0.598651 1.147980 2.548930
-0.604999 1.147010 2.546840
-0.612812 1.148470 2.549860
-0.618427 1.146280 2.544990
-0.625507 1.146760 2.545920
-0.632832 1.147250 2.546840
-0.640156 1.148230 2.548930
-0.647237 1.148230 2.548930
-0.653096 1.146520 2.544990
-0.660176 1.147010 2.545920
-0.667501 1.147500 2.546840
-0.674581 1.147980 2.547770
-0.682150 1.148960 2.549860
-0.685568 1.143350 2.536870
-0.692892 1.144320 2.538960
-0.702170 1.147980 2.546840
-0.710959 1.151160 2.553800
-0.718284 1.151650 2.554960
-0.723655 1.149450 2.549860
-0.729514 1.147740 2.545920
-0.735618 1.146520 2.542900
-0.744896 1.150180 2.550790
-0.754173 1.153840 2.558900
-0.759056 1.150670 2.551950
-0.764672 1.148470 2.546840
-0.771264 1.148230 2.545920
-0.777612 1.147500 2.543830
-0.782006 1.143830 2.535940
-0.789575 1.144810 2.537800
-0.796655 1.145050 2.537800
-0.803735 1.145540 2.538960
-0.810083 1.144810 2.536870
-0.819605 1.148470 2.544990
-0.826930 1.148960 2.545920
-0.834010 1.148960 2.545920
-0.842311 1.150910 2.549860
-0.848170 1.149690 2.546840
-0.855495 1.150180 2.547770
-0.859645 1.146280 2.538960
-0.868435 1.149200 2.544990
-0.876247 1.150180 2.546840
-0.888211 1.156530 2.560990
-0.897000 1.158970 2.565860
-0.904324 1.159700 2.566790
-0.913358 1.153600 2.552870
-0.919706 1.152870 2.550790
-0.928251 1.154820 2.554960
-0.934843 1.154330 2.553800
-0.939726 1.151890 2.547770
-0.940947 1.144810 2.532000
-0.949004 1.146280 2.534780
-0.955596 1.146030 2.533850
-0.961211 1.144320 2.529910
1.400680 1.169470 2.564930
1.385050 1.168000 2.563770
1.385540 1.174350 2.578850
1.375770 1.172150 2.574910
1.358200 1.163120 2.555890
1.354290 1.165810 2.562850
1.351120 1.169230 2.570960
1.351360 1.175570 2.585810
1.332320 1.165320 2.563770
1.316690 1.157510 2.547770
1.319380 1.166300 2.567950
1.321820 1.174600 2.586970
1.307660 1.168250 2.573980
1.292030 1.160680 2.557980
1.283730 1.159460 2.555890
1.285680 1.167760 2.574910
1.272740 1.162390 2.563770
1.068150 1.146030 2.543830
1.031040 1.151160 2.557980
1.025910 1.153360 2.562850
1.017360 1.151400 2.558900
1.001500 1.149200 2.554960
0.997833 1.153110 2.563770
0.991241 1.153360 2.564930
0.985870 1.155550 2.569800
0.975860 1.151650 2.561920
0.968780 1.151650 2.561920
0.964141 1.154580 2.568880
0.957060 1.154330 2.568880
0.949736 1.153840 2.567950
0.937529 1.147250 2.553800
0.931913 1.148960 2.557980
0.924833 1.148960 2.557980
0.921415 1.153360 2.567950
0.910428 1.148230 2.556820
0.902127 1.146760 2.553800
0.894070 1.145300 2.550790
0.889920 1.148720 2.558900
0.885037 1.151160 2.564930
0.880398 1.154330 2.571890
0.871853 1.152380 2.567950
0.863552 1.150430 2.563770
0.855495 1.148960 2.560990
0.850124 1.151160 2.565860
0.843043 1.150910 2.565860
0.835231 1.149940 2.563770
0.826930 1.148230 2.559830
0.821070 1.149450 2.562850
0.814966 1.150670 2.565860
0.806665 1.148720 2.561920
0.800562 1.149940 2.564930
0.793481 1.149940 2.564930
0.786645 1.149940 2.564930
0.776147 1.144810 2.553800
0.768578 1.143830 2.551950
0.764428 1.147740 2.560990
0.759301 1.150910 2.567950
0.753929 1.153110 2.572820
0.743675 1.147980 2.561920
0.735862 1.146520 2.558900
0.728538 1.146030 2.557980
0.720969 1.145050 2.555890
0.712912 1.143350 2.551950
0.704367 1.140420 2.545920
0.699484 1.144080 2.553800
0.694357 1.146520 2.559830
0.688986 1.149200 2.565860
0.681173 1.147740 2.562850
0.672628 1.145050 2.556820
0.664571 1.143350 2.552870
0.657491 1.142860 2.551950
0.650899 1.143590 2.553800
0.644063 1.143590 2.553800
0.636738 1.143100 2.552870
0.630146 1.143350 2.553800
0.622578 1.142610 2.551950
0.616474 1.143830 2.554960
0.613300 1.150910 2.570960
0.606220 1.150430 2.569800
0.594256 1.140900 2.548930
0.585955 1.138220 2.542900
0.579608 1.139190 2.544990
0.572039 1.137730 2.541970
0.565203 1.138220 2.542900
0.559832 1.141150 2.549860
0.553972 1.143350 2.554960
0.546648 1.142610 2.552870
0.539079 1.140660 2.548930
0.531754 1.139680 2.546840
0.526139 1.142860 2.553800
0.519059 1.142370 2.552870
0.512223 1.142860 2.553800
0.504654 1.140900 2.549860
0.497818 1.141390 2.550790
0.491226 1.141880 2.551950
0.484390 1.141880 2.551950
0.478286 1.144080 2.556820
0.470229 1.141390 2.550790
0.463637 1.141640 2.551950
0.456069 1.140420 2.548930
0.449721 1.141640 2.551950
0.442152 1.139930 2.547770
0.434828 1.138950 2.545920
0.426771 1.135780 2.538960
0.419935 1.135780 2.538960
0.413343 1.136750 2.540810
0.407239 1.138950 2.545920
0.401135 1.140660 2.549860
0.393811 1.139680 2.547770
0.387951 1.142370 2.553800
0.381115 1.142860 2.554960
0.373547 1.141150 2.550790
0.365490 1.137490 2.542900
0.358898 1.138220 2.544990
0.352306 1.139190 2.546840
0.345225 1.138710 2.545920
0.338878 1.140170 2.548930
0.332774 1.142860 2.554960
0.325449 1.141390 2.551950
