-0.320811 0.581317 3.598000
-0.330088 0.580584 3.593820
-0.339366 0.579608 3.588950
-0.281991 0.572283 3.602870
-0.292001 0.572771 3.605880
-0.301767 0.572771 3.605880
-0.312021 0.573260 3.608900
-0.321543 0.573016 3.606810
-0.330821 0.572283 3.602870
-0.339854 0.571062 3.594980
-0.349132 0.570086 3.588950
-0.378674 0.570574 3.592900
-0.388928 0.571062 3.595910
-0.398938 0.571551 3.598930
-0.408948 0.571795 3.601940
-0.418226 0.571306 3.598000
-0.427992 0.571306 3.598000
-0.437513 0.570818 3.594980
-0.447523 0.571062 3.598000
-0.263192 0.564226 3.612840
-0.272958 0.563738 3.610990
-0.282479 0.563494 3.608900
-0.292734 0.564226 3.612840
-0.302255 0.563738 3.609830
-0.312021 0.563738 3.610990
-0.321543 0.563005 3.606810
-0.331065 0.562761 3.604960
-0.340342 0.561785 3.598930
-0.349620 0.561296 3.594980
-0.359386 0.560808 3.592900
-0.369152 0.560808 3.592900
-0.378918 0.561052 3.594980
-0.389172 0.561785 3.598930
-0.399182 0.561785 3.599850
-0.409192 0.562273 3.602870
-0.418714 0.562029 3.600780
-0.428236 0.561785 3.599850
-0.437757 0.561541 3.598000
-0.447768 0.561785 3.599850
-0.458266 0.562761 3.605880
-0.468764 0.563250 3.609830
-0.214850 0.555925 3.622820
-0.224372 0.555193 3.617940
-0.233894 0.554704 3.613770
-0.243904 0.554949 3.616790
-0.253914 0.555437 3.618870
-0.263436 0.554704 3.614930
-0.272958 0.553972 3.610990
-0.282723 0.553972 3.609830
-0.292734 0.554460 3.613770
-0.302499 0.554460 3.613770
-0.312265 0.554460 3.613770
-0.321787 0.553728 3.609830
-0.331309 0.553240 3.606810
-0.340587 0.552507 3.601940
-0.350108 0.552019 3.598930
-0.359630 0.551530 3.595910
-0.369396 0.551775 3.596840
-0.379406 0.552019 3.598930
-0.389660 0.552751 3.603800
-0.399426 0.552507 3.601940
-0.409436 0.552751 3.604960
-0.418958 0.552751 3.603800
-0.428968 0.552751 3.604960
-0.438734 0.552507 3.603800
-0.448500 0.552507 3.603800
-0.458510 0.552995 3.606810
-0.468520 0.553240 3.607970
-0.224860 0.546892 3.626990
-0.234382 0.545915 3.621890
-0.244148 0.545915 3.621890
-0.253914 0.545915 3.620960
-0.263680 0.545427 3.617940
-0.273202 0.544694 3.613770
-0.282968 0.544694 3.613770
-0.292734 0.544939 3.614930
-0.302744 0.544939 3.614930
-0.312265 0.544450 3.611910
-0.321787 0.543962 3.608900
-0.331553 0.543718 3.607970
-0.340831 0.542985 3.603800
-0.350597 0.542985 3.603800
-0.360118 0.542497 3.600780
-0.370373 0.543229 3.604960
-0.380139 0.543229 3.604960
-0.390149 0.543474 3.607970
-0.399670 0.542985 3.603800
-0.409680 0.543474 3.606810
-0.419691 0.543718 3.609830
-0.429701 0.543962 3.610990
-0.439222 0.543474 3.607970
-0.448500 0.542985 3.604960
-0.458754 0.543474 3.608900
-0.468764 0.543718 3.609830
-0.225349 0.537858 3.632790
-0.234626 0.536882 3.625830
-0.244636 0.536882 3.626990
-0.254402 0.536637 3.625830
-0.264168 0.536637 3.625830
-0.273690 0.535905 3.619800
-0.283456 0.535905 3.619800
-0.292978 0.535173 3.615860
-0.302744 0.535417 3.616790
-0.312510 0.534928 3.613770
-0.322275 0.534928 3.613770
-0.331553 0.534196 3.609830
-0.341075 0.533464 3.604960
-0.350841 0.533464 3.604960
-0.360363 0.533219 3.602870
-0.370617 0.533708 3.606810
-0.380383 0.533952 3.607970
-0.390393 0.533952 3.608900
-0.399915 0.533708 3.607970
-0.409925 0.533952 3.608900
-0.420179 0.534440 3.612840
-0.429945 0.534196 3.611910
-0.439467 0.533952 3.609830
-0.448988 0.533708 3.607970
-0.458998 0.534196 3.610990
-0.469253 0.534440 3.613770
-0.234870 0.527604 3.629770
-0.244881 0.527604 3.630930
-0.254891 0.527848 3.631860
-0.264657 0.527848 3.631860
-0.274178 0.527116 3.626990
-0.283944 0.526627 3.624900
-0.293222 0.525895 3.618870
-0.302988 0.525651 3.617940
-0.312510 0.525163 3.614930
-0.322520 0.525407 3.615860
-0.332041 0.524918 3.612840
-0.341319 0.524186 3.607970
-0.351085 0.523942 3.606810
-0.360607 0.523698 3.605880
-0.370861 0.524186 3.608900
-0.380627 0.524186 3.608900
-0.390637 0.524430 3.610990
-0.400403 0.524430 3.610990
-0.410413 0.524918 3.613770
-0.420667 0.525163 3.616790
-0.430433 0.525163 3.615860
-0.439955 0.524674 3.613770
-0.449232 0.524430 3.610990
-0.459487 0.524674 3.612840
-0.469741 0.525163 3.616790
-0.235359 0.518326 3.634880
-0.244881 0.517838 3.630930
-0.254891 0.518082 3.632790
-0.264657 0.517838 3.631860
-0.274422 0.517594 3.629770
-0.284188 0.517350 3.627920
-0.293466 0.516617 3.622820
-0.302988 0.516129 3.618870
-0.312754 0.515641 3.616790
-0.322764 0.516373 3.620960
-0.332286 0.515641 3.616790
-0.341807 0.514908 3.611910
-0.351329 0.514664 3.609830
-0.361095 0.514664 3.610990
-0.371105 0.514908 3.611910
-0.381115 0.514908 3.612840
-0.391125 0.515152 3.614930
-0.400891 0.515397 3.615860
-0.410657 0.515397 3.615860
-0.420911 0.515885 3.618870
-0.430677 0.515641 3.617940
-0.440443 0.515641 3.617940
-0.449721 0.514908 3.613770
-0.459731 0.515152 3.614930
-0.470229 0.515885 3.619800
-0.235603 0.509293 3.639980
-0.245125 0.508316 3.632790
-0.254891 0.508316 3.632790
-0.264657 0.507828 3.629770
-0.274422 0.507828 3.630930
-0.284433 0.508072 3.631860
-0.293954 0.507584 3.627920
-0.303476 0.506851 3.622820
-0.312998 0.506363 3.620960
-0.323252 0.506851 3.623980
-0.332774 0.506607 3.621890
-0.342296 0.505875 3.616790
-0.351817 0.505631 3.614930
-0.361827 0.505875 3.616790
-0.371593 0.505875 3.616790
-0.381359 0.505875 3.616790
-0.391369 0.505875 3.617940
-0.401379 0.506119 3.618870
-0.411145 0.505875 3.618870
-0.420911 0.505875 3.618870
-0.430677 0.505875 3.618870
-0.440931 0.506119 3.620960
-0.450209 0.505631 3.617940
-0.460463 0.506119 3.620960
-0.470717 0.506607 3.623980
-0.235603 0.499527 3.640910
-0.245125 0.498306 3.632790
-0.255135 0.498550 3.634880
-0.264657 0.498062 3.630930
-0.274667 0.498550 3.633950
-0.284677 0.498550 3.633950
-0.294443 0.498550 3.633950
-0.303964 0.497818 3.628850
-0.313486 0.497330 3.625830
-0.323252 0.497330 3.625830
-0.333018 0.496841 3.622820
-0.342296 0.496109 3.617940
-0.351817 0.495865 3.614930
-0.361827 0.496109 3.617940
-0.371838 0.496353 3.618870
-0.381603 0.496353 3.618870
-0.391614 0.496353 3.619800
-0.401624 0.496597 3.621890
-0.411389 0.496597 3.621890
-0.421155 0.496353 3.620960
-0.430677 0.496109 3.618870
-0.440687 0.496353 3.619800
-0.450453 0.496109 3.619800
-0.460952 0.496841 3.624900
-0.471206 0.497330 3.628850
-0.235847 0.490249 3.644850
-0.245613 0.489517 3.640910
-0.255379 0.489517 3.639980
-0.264901 0.489029 3.635800
-0.274911 0.489029 3.636960
-0.284921 0.489029 3.636960
-0.294687 0.489029 3.636960
-0.304209 0.488540 3.632790
-0.313974 0.488296 3.630930
-0.323740 0.488052 3.629770
-0.333262 0.487564 3.626990
-0.342540 0.486831 3.620960
-0.352062 0.486343 3.616790
-0.361827 0.486099 3.615860
-0.371838 0.486343 3.617940
-0.381848 0.486587 3.619800
-0.391614 0.486343 3.618870
-0.401624 0.486587 3.620960
-0.411634 0.486831 3.622820
-0.421644 0.487075 3.624900
-0.431166 0.486831 3.621890
-0.440931 0.486587 3.621890
-0.450697 0.486587 3.621890
-0.461440 0.487564 3.628850
-0.471938 0.488052 3.632790
-0.236091 0.480483 3.646940
-0.245857 0.480483 3.645780
-0.255623 0.480239 3.643920
-0.265389 0.479507 3.639980
-0.275155 0.479507 3.639980
-0.284921 0.479507 3.638820
-0.294931 0.479507 3.638820
-0.304453 0.478774 3.634880
-0.314219 0.478530 3.632790
-0.323740 0.478286 3.630930
-0.333506 0.477798 3.627920
-0.342784 0.477309 3.622820
-0.352062 0.476577 3.617940
-0.361827 0.476333 3.615860
-0.371838 0.476577 3.617940
-0.381848 0.476821 3.620960
-0.391614 0.476821 3.619800
-0.401868 0.477065 3.622820
-0.411878 0.477554 3.625830
-0.422132 0.477798 3.628850
-0.431654 0.477309 3.625830
-0.441176 0.477065 3.622820
-0.451186 0.477065 3.623980
-0.461440 0.477554 3.627920
-0.471938 0.478286 3.632790
-0.236579 0.471694 3.653900
-0.246345 0.471206 3.651810
-0.256111 0.470717 3.647870
-0.265633 0.470229 3.643920
-0.275399 0.469985 3.642990
-0.285165 0.469985 3.641830
-0.294931 0.469497 3.638820
-0.304453 0.469253 3.635800
-0.314219 0.468764 3.633950
-0.323740 0.468276 3.629770
-0.333506 0.468032 3.627920
-0.343028 0.467788 3.625830
-0.352550 0.467299 3.621890
-0.362072 0.466811 3.617940
-0.372082 0.467055 3.619800
-0.382092 0.467299 3.622820
-0.391858 0.467055 3.621890
-0.401624 0.467055 3.620960
-0.411878 0.467299 3.623980
-0.422132 0.467788 3.627920
-0.431898 0.467788 3.627920
-0.441420 0.467544 3.625830
-0.451186 0.467544 3.624900
-0.461684 0.468032 3.628850
-0.471938 0.468520 3.633950
-0.236824 0.461928 3.655980
-0.246345 0.461440 3.652970
-0.256111 0.461196 3.649950
-0.265633 0.460463 3.644850
-0.275643 0.460463 3.644850
-0.285409 0.459975 3.641830
-0.294931 0.459731 3.639980
-0.304697 0.459243 3.635800
-0.314219 0.458998 3.632790
-0.323496 0.458022 3.626990
-0.333262 0.458022 3.625830
-0.343028 0.457778 3.624900
-0.352794 0.457778 3.623980
-0.362316 0.457289 3.620960
-0.372570 0.457533 3.623980
-0.382336 0.457533 3.623980
-0.392102 0.457533 3.623980
-0.401624 0.457289 3.620960
-0.412122 0.457778 3.625830
-0.422132 0.458022 3.627920
-0.432142 0.458266 3.628850
-0.441420 0.457533 3.624900
-0.451186 0.457533 3.624900
-0.461440 0.458022 3.627920
-0.472182 0.458754 3.633950
-0.236824 0.452406 3.659000
-0.246834 0.452162 3.656910
-0.256600 0.451918 3.654820
-0.265877 0.450942 3.647870
-0.275887 0.450942 3.646940
-0.285409 0.450209 3.642990
-0.295175 0.449965 3.640910
-0.304453 0.449232 3.633950
-0.313974 0.448744 3.630930
-0.323496 0.448256 3.625830
-0.333262 0.448012 3.624900
-0.343272 0.448012 3.625830
-0.352794 0.448012 3.624900
-0.362804 0.448012 3.624900
-0.372814 0.448256 3.626990
-0.382824 0.448256 3.627920
-0.392590 0.448256 3.627920
-0.402112 0.447768 3.623980
-0.412366 0.448256 3.627920
-0.422376 0.448500 3.629770
-0.432386 0.448500 3.630930
-0.441664 0.448012 3.625830
-0.451186 0.447768 3.624900
-0.461440 0.448012 3.627920
-0.472427 0.448988 3.635800
-0.227302 0.442885 3.662940
-0.236824 0.442396 3.659000
-0.246834 0.442396 3.659000
-0.256600 0.441908 3.654820
-0.266121 0.441420 3.650880
-0.275887 0.441176 3.648790
-0.285653 0.440687 3.644850
-0.295175 0.440199 3.640910
-0.304453 0.439222 3.632790
-0.313974 0.438734 3.628850
-0.323496 0.438490 3.626990
-0.333018 0.438002 3.622820
-0.343028 0.438002 3.623980
-0.353038 0.438246 3.625830
-0.363048 0.438490 3.628850
-0.373058 0.438734 3.629770
-0.383068 0.438734 3.630930
-0.392834 0.438734 3.629770
-0.402356 0.438490 3.627920
-0.412610 0.438734 3.630930
-0.422620 0.438734 3.631860
-0.432630 0.438978 3.632790
-0.441908 0.438246 3.627920
-0.451430 0.438246 3.626990
-0.461684 0.438490 3.629770
-0.472671 0.439467 3.637890
-0.237068 0.432875 3.661780
-0.247078 0.432875 3.662940
-0.256844 0.432386 3.657840
-0.266610 0.432142 3.655980
-0.276376 0.431898 3.653900
-0.285897 0.431410 3.649950
-0.295419 0.430433 3.642990
-0.304453 0.429456 3.634880
-0.313974 0.428968 3.630930
-0.333018 0.427992 3.621890
-0.342784 0.427992 3.622820
-0.353038 0.428480 3.626990
-0.363292 0.428968 3.630930
-0.373547 0.429212 3.632790
-0.402600 0.428724 3.629770
-0.422864 0.429212 3.632790
-0.432875 0.429456 3.635800
-0.442396 0.428968 3.632790
-0.452406 0.429212 3.633950
-0.462416 0.429212 3.634880
-0.473159 0.430189 3.641830
-0.237068 0.422864 3.661780
-0.247078 0.422864 3.661780
-0.256844 0.422376 3.657840
-0.266610 0.422376 3.657840
-0.276620 0.422132 3.655980
-0.286142 0.421644 3.651810
-0.295419 0.420667 3.642990
-0.304697 0.419935 3.637890
-0.314463 0.419691 3.634880
-0.324229 0.419446 3.632790
-0.333262 0.418470 3.624900
-0.342784 0.418226 3.621890
-0.353282 0.418714 3.627920
-0.363781 0.419691 3.634880
-0.373791 0.419935 3.636960
-0.383312 0.419446 3.632790
-0.392590 0.418714 3.627920
-0.402112 0.418226 3.623980
-0.433607 0.420179 3.640910
-0.442885 0.419691 3.636960
-0.452895 0.419691 3.636960
-0.463149 0.419935 3.639980
-0.237312 0.413343 3.664800
-0.247322 0.413343 3.665960
-0.257088 0.413099 3.662940
-0.267098 0.413099 3.662940
-0.276864 0.412610 3.659000
-0.286386 0.412122 3.654820
-0.295663 0.411145 3.646940
-0.305185 0.410657 3.642990
-0.314951 0.410413 3.639980
-0.342784 0.408216 3.620960
-0.353282 0.408948 3.626990
-0.364025 0.409925 3.635800
-0.374279 0.410413 3.640910
-0.383557 0.409680 3.634880
-0.392346 0.408704 3.625830
-0.401624 0.407971 3.618870
-0.423109 0.409680 3.635800
-0.433607 0.410169 3.640910
-0.442885 0.409925 3.636960
-0.453139 0.409925 3.638820
-0.463637 0.410657 3.643920
-0.237312 0.403577 3.665960
-0.247566 0.403577 3.667810
-0.257332 0.403333 3.665960
-0.267098 0.403088 3.662940
-0.276864 0.402844 3.659930
-0.286386 0.402112 3.654820
-0.295907 0.401624 3.649950
-0.305429 0.401135 3.645780
-0.314951 0.400647 3.641830
-0.333506 0.398938 3.626990
-0.343028 0.398694 3.622820
-0.353038 0.398938 3.625830
-0.363781 0.399670 3.633950
-0.374035 0.400159 3.637890
-0.383312 0.399670 3.632790
-0.392102 0.398450 3.621890
-0.401135 0.397717 3.615860
-0.433851 0.400647 3.642990
-0.443373 0.400159 3.639980
-0.453383 0.400403 3.640910
-0.237800 0.394055 3.670830
-0.247810 0.394055 3.670830
-0.257576 0.393811 3.667810
-0.267342 0.393323 3.664800
-0.277108 0.393078 3.662940
-0.286874 0.392834 3.659930
-0.296152 0.391858 3.651810
-0.305673 0.391369 3.647870
-0.315195 0.390881 3.641830
-0.333506 0.389416 3.627920
-0.343272 0.389172 3.625830
-0.353038 0.388928 3.624900
-0.363292 0.389416 3.628850
-0.373547 0.389904 3.633950
-0.383312 0.389660 3.631860
-0.392102 0.388684 3.622820
-0.401379 0.388195 3.617940
-0.434095 0.390881 3.644850
-0.443861 0.390637 3.642990
-0.453627 0.390637 3.642990
-0.238044 0.384289 3.673840
-0.247810 0.384289 3.671990
-0.257576 0.383557 3.666880
-0.267342 0.383312 3.664800
-0.277108 0.383312 3.663870
-0.286874 0.382824 3.659930
-0.295907 0.381848 3.649950
-0.305429 0.381115 3.643920
-0.314951 0.380627 3.639980
-0.324717 0.380627 3.638820
-0.333995 0.379650 3.630930
-0.353038 0.378918 3.623980
-0.362804 0.379162 3.624900
-0.373302 0.379650 3.630930
-0.383068 0.379650 3.629770
-0.392102 0.378918 3.622820
-0.401379 0.378185 3.616790
-0.434584 0.381359 3.648790
-0.444105 0.381115 3.645780
-0.453871 0.380871 3.643920
-0.238044 0.374523 3.674770
-0.247810 0.374279 3.672910
-0.257576 0.373791 3.666880
-0.267342 0.373547 3.666880
-0.277352 0.373547 3.665960
-0.286874 0.373058 3.660850
-0.295907 0.371593 3.647870
-0.305185 0.371105 3.642990
-0.315195 0.371105 3.642990
-0.325205 0.371105 3.642990
-0.334239 0.370373 3.634880
-0.353038 0.369152 3.623980
-0.363048 0.369396 3.626990
-0.373791 0.370128 3.634880
-0.383557 0.370128 3.633950
-0.392590 0.369396 3.625830
-0.401868 0.368664 3.620960
-0.434339 0.371349 3.646940
-0.444105 0.371105 3.644850
-0.453871 0.371105 3.643920
-0.238044 0.364513 3.674770
-0.248054 0.364513 3.673840
-0.257576 0.364025 3.668970
-0.267586 0.363781 3.667810
-0.277596 0.363781 3.668970
-0.286874 0.363048 3.660850
-0.295907 0.361827 3.648790
-0.305429 0.361583 3.644850
-0.315439 0.361583 3.645780
-0.325449 0.361583 3.645780
-0.334239 0.360363 3.634880
-0.353038 0.359386 3.624900
-0.363292 0.359874 3.629770
-0.373791 0.360363 3.635800
-0.383557 0.360363 3.633950
-0.392346 0.359386 3.624900
-0.401379 0.358654 3.617940
-0.434339 0.361339 3.646940
-0.444349 0.361339 3.646940
-0.454115 0.361339 3.645780
-0.238044 0.354747 3.675930
-0.248054 0.354503 3.674770
-0.257820 0.354259 3.671990
-0.267830 0.354015 3.670830
-0.277840 0.354259 3.671990
-0.287362 0.353526 3.664800
-0.296152 0.352306 3.651810
-0.305673 0.351817 3.646940
-0.315439 0.351573 3.645780
-0.325205 0.351573 3.644850
-0.333995 0.350352 3.632790
-0.353282 0.349620 3.625830
-0.363781 0.350352 3.633950
-0.374035 0.350841 3.637890
-0.383557 0.350597 3.634880
-0.392346 0.349620 3.624900
-0.401624 0.348888 3.617940
-0.434828 0.351817 3.649950
-0.444594 0.351817 3.649950
-0.454360 0.351817 3.648790
-0.238289 0.344737 3.677790
-0.248054 0.344737 3.675930
-0.257820 0.344249 3.672910
-0.267830 0.344249 3.671990
-0.278085 0.344493 3.674770
-0.287362 0.343760 3.666880
-0.296396 0.342540 3.654820
-0.305918 0.342051 3.648790
-0.315683 0.341807 3.647870
-0.325205 0.341563 3.643920
-0.333995 0.340342 3.630930
-0.353282 0.340098 3.627920
-0.364269 0.340831 3.637890
-0.374279 0.341075 3.639980
-0.383557 0.340587 3.634880
-0.392346 0.339366 3.622820
-0.401135 0.338633 3.613770
-0.435072 0.342051 3.651810
-0.445082 0.342296 3.653900
-0.455092 0.342296 3.652970
-0.238533 0.335215 3.680800
-0.248299 0.334971 3.678950
-0.258065 0.334727 3.675930
-0.268075 0.334483 3.674770
-0.278085 0.334727 3.675930
-0.287362 0.333750 3.665960
-0.296396 0.332774 3.654820
-0.305918 0.332041 3.648790
-0.315928 0.332286 3.649950
-0.325205 0.331553 3.643920
-0.333750 0.330332 3.629770
-0.353771 0.330332 3.630930
-0.364269 0.331065 3.638820
-0.374523 0.331309 3.640910
-0.383557 0.330576 3.633950
-0.392346 0.329600 3.623980
-0.401379 0.329112 3.616790
-0.435316 0.332286 3.653900
-0.445326 0.332286 3.653900
-0.455092 0.332286 3.653900
-0.238533 0.325205 3.682890
-0.248543 0.324961 3.679870
-0.258309 0.324717 3.676860
-0.268075 0.324717 3.675930
-0.278329 0.324717 3.677790
-0.287362 0.323740 3.666880
-0.296640 0.322764 3.655980
-0.305918 0.322275 3.650880
-0.315928 0.322520 3.651810
-0.325205 0.321787 3.643920
-0.333995 0.320566 3.631860
-0.354015 0.320811 3.633950
-0.364269 0.321299 3.638820
-0.374523 0.321543 3.641830
-0.383557 0.320811 3.633950
-0.392590 0.320078 3.624900
-0.401624 0.319346 3.618870
-0.435316 0.322520 3.654820
-0.445326 0.322520 3.654820
-0.455336 0.322520 3.654820
-0.238533 0.315195 3.681960
-0.248543 0.315195 3.681960
-0.258553 0.315195 3.680800
-0.268319 0.314951 3.678950
-0.278329 0.314951 3.678950
-0.287362 0.313730 3.665960
-0.296640 0.312998 3.656910
-0.306162 0.312510 3.651810
-0.316172 0.312510 3.652970
-0.325205 0.311777 3.642990
-0.333995 0.310800 3.630930
-0.353771 0.310800 3.631860
-0.364269 0.311289 3.636960
-0.374523 0.311533 3.640910
-0.383801 0.311045 3.634880
-0.392590 0.310312 3.625830
-0.402112 0.309824 3.621890
-0.435804 0.312754 3.657840
-0.445570 0.312754 3.656910
-0.455580 0.312754 3.657840
-0.238533 0.304941 3.679870
-0.248543 0.305185 3.681960
-0.258553 0.305185 3.680800
-0.268319 0.304941 3.678950
-0.278329 0.304941 3.678950
-0.287362 0.303964 3.666880
-0.296640 0.302988 3.656910
-0.306162 0.302499 3.650880
-0.316172 0.302499 3.651810
-0.325449 0.302011 3.644850
-0.334239 0.301035 3.632790
-0.353771 0.300790 3.630930
-0.364025 0.301279 3.635800
-0.374523 0.301767 3.641830
-0.383801 0.301279 3.635800
-0.392834 0.300302 3.626990
-0.402112 0.300058 3.621890
-0.436048 0.302988 3.659930
-0.446059 0.302988 3.659930
-0.455580 0.302988 3.657840
-0.238533 0.295175 3.681960
-0.248787 0.295419 3.684980
-0.258797 0.295175 3.682890
-0.268563 0.294931 3.680800
-0.278573 0.294931 3.679870
-0.287606 0.293954 3.667810
-0.296640 0.293222 3.657840
-0.306162 0.292734 3.652970
-0.316172 0.292734 3.652970
-0.325449 0.292245 3.646940
-0.334239 0.291025 3.632790
-0.353771 0.291025 3.630930
-0.364025 0.291269 3.635800
-0.374279 0.291513 3.639980
-0.383557 0.291025 3.632790
-0.392590 0.290292 3.624900
-0.401624 0.289804 3.618870
-0.436048 0.293222 3.659930
-0.446059 0.293222 3.659930
-0.455824 0.292978 3.659000
-0.238777 0.285409 3.685900
-0.249031 0.285653 3.687990
-0.258797 0.285409 3.685900
-0.268807 0.285409 3.684980
-0.279061 0.285409 3.685900
-0.287851 0.284433 3.672910
-0.296884 0.283212 3.659000
-0.306406 0.282968 3.653900
-0.316172 0.282968 3.653900
-0.325938 0.282723 3.650880
-0.334483 0.281503 3.636960
-0.344005 0.281014 3.630930
-0.354015 0.281259 3.632790
-0.364513 0.281747 3.638820
-0.374523 0.281747 3.640910
-0.383557 0.281259 3.632790
-0.392590 0.280526 3.625830
-0.402112 0.280282 3.621890
-0.436048 0.283212 3.659930
-0.446059 0.283212 3.660850
-0.456313 0.283212 3.661780
-0.239021 0.275643 3.688920
-0.249031 0.275643 3.689850
-0.259041 0.275643 3.687990
-0.269051 0.275643 3.688920
-0.279061 0.275643 3.687990
-0.288095 0.274422 3.673840
-0.296884 0.273446 3.660850
-0.306650 0.273202 3.657840
-0.316660 0.273202 3.656910
-0.325938 0.272713 3.651810
-0.334483 0.271493 3.635800
-0.344005 0.271249 3.631860
-0.354259 0.271493 3.634880
-0.364513 0.271737 3.639980
-0.374767 0.271981 3.642990
-0.383801 0.271493 3.635800
-0.392834 0.271004 3.627920
-0.402112 0.270516 3.622820
-0.436293 0.273446 3.661780
-0.446547 0.273446 3.663870
-0.456557 0.273690 3.664800
-0.239265 0.265877 3.690770
-0.249275 0.265633 3.690770
-0.259041 0.265633 3.688920
-0.269295 0.265633 3.689850
-0.279305 0.265633 3.689850
-0.288095 0.264412 3.673840
-0.296884 0.263436 3.659930
-0.306650 0.263192 3.656910
-0.316904 0.263436 3.659930
-0.326426 0.263192 3.656910
-0.334971 0.262215 3.641830
-0.344249 0.261727 3.634880
-0.354259 0.261727 3.634880
-0.364757 0.261971 3.640910
-0.374767 0.262215 3.643920
-0.384289 0.261971 3.638820
-0.393078 0.261238 3.628850
-0.402112 0.260506 3.621890
-0.436781 0.263680 3.664800
-0.446791 0.263680 3.665960
-0.456801 0.263680 3.665960
-0.239265 0.255867 3.691930
-0.249275 0.255623 3.689850
-0.259041 0.255379 3.685900
-0.269051 0.255379 3.687990
-0.278817 0.255379 3.684980
-0.287851 0.254158 3.669900
-0.296640 0.253426 3.657840
-0.306894 0.253426 3.659000
-0.317148 0.253670 3.662940
-0.326426 0.253182 3.656910
-0.334971 0.252205 3.641830
-0.344493 0.251961 3.637890
-0.354503 0.251961 3.638820
-0.364757 0.252205 3.642990
-0.375011 0.252449 3.644850
-0.384045 0.251961 3.637890
-0.392834 0.251228 3.626990
-0.401868 0.250740 3.619800
-0.437025 0.253914 3.666880
-0.446791 0.253670 3.665960
-0.456557 0.253670 3.664800
-0.239265 0.245857 3.692860
-0.249275 0.245613 3.690770
-0.259041 0.245369 3.686830
-0.269295 0.245613 3.688920
-0.279061 0.245369 3.685900
-0.287851 0.244392 3.671990
-0.296884 0.243660 3.659930
-0.306894 0.243660 3.659930
-0.317392 0.243904 3.666880
-0.327158 0.243660 3.662940
-0.335459 0.242683 3.646940
-0.344737 0.242195 3.639980
-0.354503 0.241951 3.637890
-0.364757 0.242195 3.641830
-0.374767 0.242195 3.641830
-0.383801 0.241951 3.635800
-0.392590 0.241218 3.625830
-0.402112 0.240730 3.620960
-0.437269 0.243904 3.668970
-0.447035 0.243904 3.667810
-0.456801 0.243904 3.665960
-0.239509 0.235847 3.695880
-0.249519 0.235847 3.694950
-0.259285 0.235603 3.691930
-0.269295 0.235603 3.690770
-0.279061 0.235359 3.685900
-0.288095 0.234382 3.672910
-0.297128 0.233650 3.661780
-0.307138 0.233894 3.663870
-0.327158 0.233650 3.662940
-0.335459 0.232673 3.646940
-0.344737 0.232185 3.639980
-0.354503 0.232185 3.638820
-0.364757 0.232429 3.640910
-0.374767 0.232429 3.641830
-0.384045 0.231941 3.635800
-0.393078 0.231697 3.629770
-0.447523 0.234138 3.671990
-0.457289 0.234138 3.670830
-0.239753 0.226081 3.698890
-0.249763 0.226081 3.697960
-0.259529 0.225837 3.694950
-0.269295 0.225593 3.691930
-0.279061 0.225349 3.687990
-0.288095 0.224372 3.672910
-0.297128 0.223884 3.662940
-0.327403 0.224128 3.666880
-0.335948 0.223151 3.651810
-0.344737 0.222419 3.639980
-0.354503 0.222175 3.636960
-0.364513 0.222419 3.639980
-0.374767 0.222419 3.641830
-0.384045 0.222175 3.636960
-0.393078 0.221686 3.629770
-0.448012 0.224372 3.674770
-0.457778 0.224372 3.673840
-0.239998 0.216071 3.701910
-0.249763 0.216071 3.698890
-0.259774 0.215827 3.696800
-0.269539 0.215583 3.691930
-0.279061 0.215339 3.685900
-0.287851 0.214362 3.670830
-0.297128 0.213874 3.661780
-0.327158 0.213874 3.664800
-0.335948 0.213141 3.650880
-0.344737 0.212409 3.639980
-0.354503 0.212409 3.637890
-0.364757 0.212409 3.640910
-0.374767 0.212653 3.641830
-0.383801 0.212165 3.634880
-0.393078 0.211676 3.627920
-0.448012 0.214362 3.675930
-0.458022 0.214362 3.674770
-0.239998 0.206061 3.701910
-0.249763 0.205817 3.697960
-0.259529 0.205573 3.693790
-0.269295 0.205329 3.689850
-0.279061 0.205084 3.684980
-0.287851 0.204352 3.670830
-0.297128 0.203864 3.661780
-0.327158 0.204108 3.664800
-0.336192 0.203375 3.652970
-0.344981 0.202643 3.640910
-0.354503 0.202399 3.636960
-0.364757 0.202643 3.641830
-0.374767 0.202643 3.641830
-0.384045 0.202399 3.635800
-0.392590 0.201666 3.624900
-0.448012 0.204352 3.674770
-0.457533 0.204352 3.671990
-0.239998 0.196051 3.701910
-0.249763 0.195807 3.698890
-0.259774 0.195807 3.695880
-0.269539 0.195563 3.691930
-0.279061 0.195074 3.685900
-0.287606 0.194098 3.666880
-0.327158 0.194098 3.664800
-0.335948 0.193365 3.651810
-0.345225 0.192877 3.642990
-0.354747 0.192633 3.639980
-0.365001 0.192877 3.642990
-0.374523 0.192633 3.640910
-0.383801 0.192389 3.633950
-0.392590 0.191900 3.623980
-0.402112 0.191656 3.620960
-0.447768 0.194342 3.673840
-0.457533 0.194098 3.670830
-0.239753 0.185797 3.699820
-0.249763 0.185797 3.698890
-0.259774 0.185797 3.696800
-0.269539 0.185553 3.692860
-0.279061 0.185064 3.686830
-0.287606 0.184088 3.665960
-0.327158 0.184088 3.664800
-0.336192 0.183355 3.652970
-0.345225 0.183111 3.644850
-0.355235 0.183111 3.644850
-0.365490 0.183111 3.647870
-0.375011 0.182867 3.643920
-0.384045 0.182623 3.635800
-0.392590 0.181890 3.624900
-0.448012 0.184332 3.674770
-0.457533 0.184332 3.671990
-0.239753 0.175787 3.697960
-0.249763 0.175787 3.697960
-0.269784 0.175542 3.695880
-0.287606 0.174322 3.667810
-0.336192 0.173589 3.652970
-0.345225 0.173101 3.642990
-0.355235 0.173101 3.643920
-0.365246 0.173101 3.644850
-0.375011 0.173101 3.643920
-0.383801 0.172613 3.633950
-0.392834 0.172124 3.625830
-0.448012 0.174566 3.675930
-0.458022 0.174322 3.674770
-0.239753 0.165532 3.697960
-0.249763 0.165777 3.698890
-0.269784 0.165532 3.697960
-0.288095 0.164312 3.671990
-0.327647 0.164312 3.668970
-0.335948 0.163579 3.650880
-0.344981 0.163091 3.640910
-0.354991 0.163091 3.641830
-0.365246 0.163091 3.645780
-0.375011 0.163091 3.644850
-0.383801 0.162603 3.634880
-0.392834 0.162358 3.626990
-0.448256 0.164556 3.676860
-0.458266 0.164556 3.677790
-0.239753 0.155522 3.699820
-0.250008 0.155766 3.700980
-0.269784 0.155522 3.696800
-0.287851 0.154302 3.669900
-0.328135 0.154546 3.672910
-0.335948 0.153569 3.650880
-0.344737 0.153081 3.639980
-0.354747 0.153081 3.638820
-0.365001 0.153081 3.642990
-0.374767 0.153081 3.641830
-0.383801 0.152837 3.634880
-0.392590 0.152348 3.624900
-0.448256 0.154546 3.677790
-0.458510 0.154546 3.679870
-0.239998 0.145756 3.701910
-0.250252 0.145756 3.703990
-0.270028 0.145512 3.699820
-0.287851 0.144292 3.670830
-0.327891 0.144292 3.670830
-0.335948 0.143559 3.649950
-0.344981 0.143071 3.640910
-0.354991 0.143315 3.641830
-0.365246 0.143315 3.646940
-0.375011 0.143315 3.643920
-0.384045 0.143071 3.636960
-0.392834 0.142582 3.626990
-0.448988 0.144780 3.681960
-0.458998 0.144780 3.682890
-0.239998 0.135502 3.701910
-0.250252 0.135746 3.704920
-0.270028 0.135502 3.699820
-0.287851 0.134281 3.668970
-0.327647 0.134281 3.669900
-0.335948 0.133549 3.649950
-0.344981 0.133305 3.639980
-0.354991 0.133305 3.641830
-0.365246 0.133549 3.646940
-0.375011 0.133305 3.643920
-0.384045 0.133061 3.636960
-0.392834 0.132817 3.626990
-0.402600 0.132572 3.625830
-0.448988 0.134770 3.682890
-0.458998 0.134770 3.682890
-0.250252 0.125736 3.705850
-0.270272 0.125492 3.702840
-0.288095 0.124516 3.671990
-0.327647 0.124271 3.668970
-0.335704 0.123539 3.648790
-0.344737 0.123295 3.637890
-0.354747 0.123295 3.640910
-0.365246 0.123539 3.646940
-0.375011 0.123539 3.644850
-0.384289 0.123295 3.638820
-0.393078 0.122806 3.628850
-0.448988 0.124760 3.681960
-0.458998 0.124760 3.682890
-0.250496 0.115482 3.706780
-0.270272 0.115482 3.702840
-0.328135 0.114505 3.672910
-0.336192 0.113773 3.651810
-0.344981 0.113529 3.639980
-0.354991 0.113529 3.641830
-0.365246 0.113529 3.644850
-0.374767 0.113529 3.640910
-0.383801 0.113285 3.633950
-0.392834 0.113041 3.625830
-0.402844 0.113041 3.627920
-0.448744 0.114750 3.680800
-0.250496 0.105472 3.707940
-0.270516 0.105472 3.706780
-0.288095 0.104495 3.672910
-0.328135 0.104495 3.674770
-0.336192 0.104007 3.653900
-0.344981 0.103519 3.640910
-0.354991 0.103519 3.642990
-0.365001 0.103519 3.643920
-0.374523 0.103519 3.639980
-0.383801 0.103275 3.633950
-0.392834 0.103030 3.626990
-0.448744 0.104495 3.679870
-0.250496 0.095462 3.707940
-0.270760 0.095462 3.708870
-0.288095 0.094485 3.673840
-0.328379 0.094485 3.676860
-0.336436 0.093997 3.655980
-0.345470 0.093753 3.644850
-0.355480 0.093753 3.645780
-0.365246 0.093753 3.645780
-0.374767 0.093753 3.641830
-0.383801 0.093509 3.633950
-0.392834 0.093265 3.624900
-0.402844 0.093265 3.626990
-0.448988 0.094729 3.681960
-0.250496 0.085208 3.707940
-0.270516 0.085208 3.706780
-0.288339 0.084475 3.674770
-0.328379 0.084475 3.677790
-0.336680 0.084231 3.657840
-0.345470 0.083743 3.646940
-0.355480 0.083987 3.647870
-0.365734 0.083987 3.649950
-0.375256 0.083743 3.646940
-0.384289 0.083743 3.638820
-0.393078 0.083499 3.628850
-0.402844 0.083499 3.627920
-0.449232 0.084719 3.684980
-0.250496 0.075198 3.706780
-0.270516 0.075198 3.705850
-0.288095 0.074465 3.673840
-0.328135 0.074465 3.674770
-0.336680 0.074221 3.659000
-0.345714 0.073977 3.647870
-0.355724 0.073977 3.649950
-0.365978 0.073977 3.652970
-0.375500 0.073977 3.649950
-0.384289 0.073733 3.637890
-0.392834 0.073489 3.625830
-0.402600 0.073489 3.625830
-0.449721 0.074709 3.688920
-0.250496 0.065187 3.707940
-0.270516 0.064943 3.704920
-0.288095 0.064455 3.671990
-0.328135 0.064455 3.674770
-0.336680 0.064211 3.659000
-0.345714 0.063967 3.647870
-0.355724 0.063967 3.649950
-0.365978 0.063967 3.651810
-0.375256 0.063967 3.645780
-0.383801 0.063723 3.633950
-0.392834 0.063723 3.626990
-0.403088 0.063723 3.628850
-0.449965 0.064699 3.690770
-0.250496 0.054933 3.708870
-0.270516 0.054933 3.705850
-0.328135 0.054445 3.674770
-0.336680 0.054201 3.656910
-0.345714 0.054201 3.647870
-0.355724 0.054201 3.648790
-0.365490 0.054201 3.648790
-0.374767 0.053957 3.641830
-0.383312 0.053713 3.629770
-0.392590 0.053713 3.622820
-0.402600 0.053713 3.624900
-0.449965 0.054689 3.690770
-0.270516 0.044923 3.704920
-0.279305 0.044679 3.689850
-0.336924 0.044191 3.660850
-0.345714 0.044191 3.647870
-0.355480 0.044191 3.646940
-0.365490 0.044191 3.646940
-0.374767 0.043947 3.640910
-0.383557 0.043947 3.631860
-0.450209 0.044679 3.691930
-0.270516 0.034669 3.705850
-0.279550 0.034669 3.692860
-0.337168 0.034425 3.663870
-0.346202 0.034181 3.652970
-0.355480 0.034181 3.647870
-0.365490 0.034181 3.648790
-0.374767 0.034181 3.640910
-0.450209 0.034669 3.692860
-0.270516 0.024659 3.706780
-0.279550 0.024659 3.691930
-0.337168 0.024415 3.663870
-0.345958 0.024415 3.651810
-0.355724 0.024415 3.649950
-0.365734 0.024415 3.649950
-0.374767 0.024171 3.640910
-0.450453 0.024659 3.693790
-0.270760 0.014649 3.707940
-0.279550 0.014405 3.690770
-0.328623 0.014405 3.678950
-0.336924 0.014405 3.660850
-0.345958 0.014405 3.651810
-0.355968 0.014405 3.650880
-0.365734 0.014405 3.649950
-0.374767 0.014405 3.640910
-0.450453 0.014405 3.693790
-0.270516 0.004395 3.706780
-0.279305 0.004395 3.689850
-0.328867 0.004395 3.682890
-0.336924 0.004395 3.661780
-0.345958 0.004395 3.649950
-0.355968 0.004395 3.650880
-0.365978 0.004395 3.651810
-0.375256 0.004395 3.646940
-0.450209 0.004395 3.692860
-0.270760 -0.005371 3.708870
-0.279550 -0.005371 3.692860
-0.329112 -0.005371 3.683820
-0.337413 -0.005371 3.665960
-0.345958 -0.005371 3.651810
-0.355968 -0.005371 3.652970
-0.365978 -0.005371 3.652970
-0.450453 -0.005371 3.694950
-0.270760 -0.015381 3.707940
-0.279550 -0.015381 3.690770
-0.329356 -0.015381 3.687990
-0.356212 -0.015137 3.653900
-0.365978 -0.015137 3.652970
-0.450942 -0.015381 3.698890
-0.270516 -0.025635 3.706780
-0.279305 -0.025391 3.689850
-0.329112 -0.025391 3.685900
-0.355968 -0.025147 3.652970
-0.365734 -0.025147 3.649950
-0.451186 -0.025391 3.700980
-0.270516 -0.035646 3.705850
-0.279305 -0.035402 3.687990
-0.355968 -0.035157 3.650880
-0.365490 -0.035157 3.648790
-0.450697 -0.035646 3.696800
-0.279305 -0.045412 3.688920
-0.355724 -0.044923 3.649950
-0.365490 -0.044923 3.646940
-0.279305 -0.055666 3.687990
-0.355724 -0.054933 3.649950
-0.365246 -0.054933 3.645780
-0.450453 -0.055666 3.694950
-0.279305 -0.065676 3.687990
-0.365490 -0.064943 3.646940
-0.450942 -0.065676 3.697960
-0.279305 -0.075686 3.689850
-0.365490 -0.074709 3.648790
-0.279305 -0.085696 3.689850
-0.365490 -0.084719 3.648790
-0.279550 -0.095706 3.690770
-0.355968 -0.094729 3.651810
-0.365490 -0.094729 3.648790
-0.355968 -0.104740 3.651810
-0.365734 -0.104740 3.649950
-0.355968 -0.114750 3.652970
-0.365490 -0.114505 3.648790
-0.355968 -0.124516 3.652970
-0.365490 -0.124516 3.648790
-0.355724 -0.134526 3.649950
-0.365246 -0.134281 3.646940
-0.355724 -0.144536 3.650880
-0.365490 -0.144292 3.648790
-0.355724 -0.154302 3.649950
-0.365246 -0.154302 3.646940
-0.355968 -0.164312 3.651810
-0.365246 -0.164068 3.645780
-0.355724 -0.174322 3.650880
-0.365001 -0.173833 3.642990
-0.365246 -0.183843 3.645780
-0.355968 -0.194342 3.653900
-0.365246 -0.193854 3.645780
-0.355968 -0.204108 3.651810
-0.365001 -0.203619 3.643920
-0.355480 -0.213874 3.647870
