0.900174 -0.414319 1.627890
0.887722 -0.410657 1.613980
0.880398 -0.409192 1.608870
0.874783 -0.408704 1.606790
0.877224 -0.411878 1.619780
0.897000 -0.423353 1.664770
0.893338 -0.423597 1.666860
0.900418 -0.429212 1.688890
0.900906 -0.431654 1.698870
0.906034 -0.436537 1.717890
0.887967 -0.434339 1.710930
0.927030 -0.364757 1.400820
0.910672 -0.361339 1.388990
0.911161 -0.363048 1.395950
0.908231 -0.363536 1.397810
0.921171 -0.373302 1.437930
0.920682 -0.378185 1.457880
0.933866 -0.388684 1.499860
0.944853 -0.395032 1.524910
0.933134 -0.391614 1.512850
0.905789 -0.383557 1.482930
0.887967 -0.415052 1.613980
0.878445 -0.412610 1.604930
0.872097 -0.411878 1.601920
0.868191 -0.412122 1.602840
0.870632 -0.415296 1.615830
0.858669 -0.411634 1.601920
0.926542 -0.365490 1.386910
0.925077 -0.369396 1.403840
0.913602 -0.366466 1.392940
0.914579 -0.368419 1.400820
0.908963 -0.367687 1.398970
0.901395 -0.366222 1.393870
0.925077 -0.378918 1.443960
0.907010 -0.374767 1.428890
0.908963 -0.377209 1.438860
0.912137 -0.380139 1.450920
0.911649 -0.381603 1.456950
0.926542 -0.389660 1.487800
0.937040 -0.395764 1.511920
0.936796 -0.397473 1.518880
0.931181 -0.396741 1.516790
0.932890 -0.399182 1.527000
0.938017 -0.403333 1.542770
0.882107 -0.380871 1.457880
0.885769 -0.418470 1.609800
0.869167 -0.412610 1.588000
0.858669 -0.409680 1.576870
0.850368 -0.407727 1.569910
0.838893 -0.404309 1.556920
0.817408 -0.396008 1.524910
0.808863 -0.393811 1.516790
0.808863 -0.395764 1.524910
0.808618 -0.397717 1.532800
0.804712 -0.399915 1.541840
0.804712 -0.406262 1.566890
0.795679 -0.403821 1.557850
0.928251 -0.368419 1.382960
0.939482 -0.377453 1.418920
0.926542 -0.373791 1.405930
0.917508 -0.371838 1.398970
0.907498 -0.369396 1.389920
0.908475 -0.371349 1.397810
0.906766 -0.372082 1.401980
0.914335 -0.378430 1.426800
0.914579 -0.380139 1.433990
0.916044 -0.382336 1.442810
0.912137 -0.382580 1.443960
0.899197 -0.378674 1.429820
0.889431 -0.422376 1.607950
0.870876 -0.415784 1.582900
0.848415 -0.406995 1.549960
0.824488 -0.397473 1.513780
0.820582 -0.397717 1.514940
0.813746 -0.396252 1.509840
0.805689 -0.394299 1.502880
0.797143 -0.392102 1.494990
0.794946 -0.393078 1.498930
0.791772 -0.393567 1.500790
0.788598 -0.394055 1.502880
0.781274 -0.392346 1.496850
0.781274 -0.394543 1.504970
0.780053 -0.396008 1.511000
0.771264 -0.393567 1.501950
0.765160 -0.392346 1.497780
0.759301 -0.391614 1.494990
0.752708 -0.390149 1.489890
0.747581 -0.389660 1.487800
0.752220 -0.394299 1.505890
0.939238 -0.382824 1.424950
0.917020 -0.375500 1.397810
0.925321 -0.380383 1.416830
0.908963 -0.376965 1.405000
0.879177 -0.389416 1.459970
0.890164 -0.425062 1.600990
0.879421 -0.424085 1.597970
0.814478 -0.394787 1.487800
0.809839 -0.394543 1.486870
0.806665 -0.395032 1.488960
0.800317 -0.393811 1.484790
0.796655 -0.394055 1.485950
0.788598 -0.392102 1.478990
0.786157 -0.392834 1.481770
0.780786 -0.392102 1.479920
0.779321 -0.393323 1.484790
0.771996 -0.391858 1.478990
0.769311 -0.392590 1.481770
0.763695 -0.391614 1.478990
0.760033 -0.391858 1.479920
0.755394 -0.391614 1.478990
0.752220 -0.391858 1.480840
0.745628 -0.390637 1.475970
0.740501 -0.389904 1.473890
0.737327 -0.390393 1.475970
0.738792 -0.393323 1.486870
0.737083 -0.394543 1.491980
0.735374 -0.395764 1.496850
0.734642 -0.397717 1.503810
0.728538 -0.396496 1.499860
0.718040 -0.393078 1.486870
0.709738 -0.390637 1.477830
0.706076 -0.390881 1.478990
0.707541 -0.394055 1.490820
0.703879 -0.394055 1.491980
0.696554 -0.392346 1.484790
0.686544 -0.388684 1.471800
0.686056 -0.390881 1.479920
0.682882 -0.391369 1.481770
0.547380 -0.391858 1.486870
0.543229 -0.391858 1.486870
0.938261 -0.378674 1.390850
0.930692 -0.376965 1.385980
0.927763 -0.383801 1.413810
0.922147 -0.383068 1.411960
0.822291 -0.389172 1.448840
0.802759 -0.395032 1.473890
0.802515 -0.396985 1.480840
0.796167 -0.395764 1.476900
0.790307 -0.394787 1.473890
0.782983 -0.393078 1.467850
0.777612 -0.392590 1.466000
0.773461 -0.392590 1.466000
0.770531 -0.392834 1.467850
0.764183 -0.391858 1.463910
0.760033 -0.391858 1.463910
0.753929 -0.390637 1.459970
0.750999 -0.391125 1.461820
0.748802 -0.392102 1.466000
0.745872 -0.392590 1.467850
0.741234 -0.392102 1.466930
0.735130 -0.391125 1.462980
0.730979 -0.391125 1.462980
0.730247 -0.392834 1.469940
0.726829 -0.393078 1.470870
0.723655 -0.393567 1.472960
0.720481 -0.394055 1.474810
0.714866 -0.393078 1.471800
0.709494 -0.392346 1.468780
0.699973 -0.389416 1.457880
0.699484 -0.391125 1.464840
0.697287 -0.392102 1.468780
0.695090 -0.393078 1.472960
0.687277 -0.390881 1.464840
0.680441 -0.389416 1.458810
0.675069 -0.388440 1.455790
0.673849 -0.390149 1.461820
0.669698 -0.389904 1.461820
0.666524 -0.390637 1.463910
0.653584 -0.389904 1.461820
0.649190 -0.389660 1.460900
0.642842 -0.388195 1.455790
0.638936 -0.388195 1.455790
0.634053 -0.387707 1.453940
0.634785 -0.390637 1.464840
0.563738 -0.396252 1.487800
0.556658 -0.394055 1.479920
0.550554 -0.392590 1.473890
0.543229 -0.390149 1.464840
0.536637 -0.388195 1.457880
0.532243 -0.387951 1.456950
0.528092 -0.387707 1.455790
0.522965 -0.386975 1.452780
0.520035 -0.387707 1.455790
0.517594 -0.388684 1.459970
0.514420 -0.389416 1.461820
0.510025 -0.388928 1.460900
0.503189 -0.389904 1.463910
0.497330 -0.394543 1.481770
0.484390 -0.400403 1.503810
0.463393 -0.396496 1.488960
0.459243 -0.396252 1.487800
0.453383 -0.394543 1.481770
0.448012 -0.393567 1.477830
0.443861 -0.393323 1.476900
0.969268 -0.393567 1.429820
0.938505 -0.392102 1.429820
0.787866 -0.393567 1.453940
0.785424 -0.394299 1.456950
0.783471 -0.395520 1.460900
0.776147 -0.393811 1.454870
0.769799 -0.392590 1.450920
0.762474 -0.390881 1.444890
0.757347 -0.390149 1.442810
0.753929 -0.390393 1.443960
0.753441 -0.392346 1.450920
0.750511 -0.392590 1.452780
0.748314 -0.393811 1.456950
0.743919 -0.393323 1.455790
0.740745 -0.393811 1.457880
0.733665 -0.392102 1.451850
0.729026 -0.391858 1.450920
0.724631 -0.391614 1.450000
0.724387 -0.393567 1.457880
0.720969 -0.393811 1.458810
0.715354 -0.392834 1.455790
0.710715 -0.392590 1.454870
0.705344 -0.391858 1.451850
0.701682 -0.392102 1.452780
0.695334 -0.390637 1.447910
0.694601 -0.392346 1.454870
0.692648 -0.393567 1.458810
0.688009 -0.393078 1.457880
0.681173 -0.391369 1.451850
0.674337 -0.389904 1.445820
0.669942 -0.389416 1.444890
0.665548 -0.389172 1.443960
0.661397 -0.389172 1.443960
0.659444 -0.390149 1.447910
0.655782 -0.390393 1.448840
0.654073 -0.391858 1.453940
0.649190 -0.391125 1.451850
0.645283 -0.391125 1.451850
0.638691 -0.389416 1.445820
0.633320 -0.388684 1.442810
0.629414 -0.388684 1.442810
0.627461 -0.389904 1.447910
0.626240 -0.391614 1.453940
0.624287 -0.392834 1.458810
0.619160 -0.392102 1.455790
0.612568 -0.390393 1.450000
0.608905 -0.390637 1.450920
0.607196 -0.391858 1.455790
0.604511 -0.392834 1.458810
0.599139 -0.391858 1.455790
0.594745 -0.391614 1.454870
0.588885 -0.390149 1.450000
0.584490 -0.389904 1.448840
0.581805 -0.390637 1.451850
0.581072 -0.392834 1.459970
0.579363 -0.394543 1.466000
0.576189 -0.395032 1.467850
0.573260 -0.395764 1.470870
0.568865 -0.395520 1.469940
0.564959 -0.395520 1.469940
0.558367 -0.393567 1.462980
0.553484 -0.393078 1.460900
0.549333 -0.392834 1.459970
0.543718 -0.391614 1.455790
0.537614 -0.390149 1.450000
0.531754 -0.388684 1.444890
0.527848 -0.388684 1.444890
0.523942 -0.388684 1.444890
0.519303 -0.388195 1.442810
0.515152 -0.387951 1.441880
0.512955 -0.389172 1.446980
0.510025 -0.389904 1.450000
0.506607 -0.390393 1.450920
0.502213 -0.389904 1.450000
0.498062 -0.389660 1.448840
0.495132 -0.390637 1.451850
0.491958 -0.391125 1.453940
0.490982 -0.393567 1.462980
0.486587 -0.393323 1.461820
0.482681 -0.393323 1.461820
0.477065 -0.391858 1.456950
0.474136 -0.392590 1.459970
0.473403 -0.395520 1.469940
0.470717 -0.396496 1.473890
0.466567 -0.396252 1.472960
0.460219 -0.394299 1.466000
0.456069 -0.394055 1.464840
0.453383 -0.395032 1.468780
0.447279 -0.393323 1.461820
0.442640 -0.392834 1.459970
0.438978 -0.393078 1.460900
0.437757 -0.395520 1.469940
0.435072 -0.396496 1.473890
0.970000 -0.427259 1.548800
0.764916 -0.391858 1.433990
0.760765 -0.391858 1.433990
0.756371 -0.391614 1.432830
0.748558 -0.389416 1.425870
0.745628 -0.389904 1.427960
0.747826 -0.393323 1.439790
0.745384 -0.394055 1.442810
0.741722 -0.394055 1.443960
0.734642 -0.392346 1.437930
0.731223 -0.392590 1.438860
0.725608 -0.391858 1.435850
0.722190 -0.392102 1.436770
0.718040 -0.391858 1.436770
0.718040 -0.394055 1.444890
0.715110 -0.394543 1.446980
0.709983 -0.394055 1.444890
0.704611 -0.393078 1.441880
0.698996 -0.392102 1.438860
0.695090 -0.392102 1.438860
0.689718 -0.391369 1.435850
0.688986 -0.393078 1.442810
0.685568 -0.393323 1.443960
0.680929 -0.393078 1.442810
0.673849 -0.391125 1.435850
0.668722 -0.390393 1.433990
0.663594 -0.389660 1.430980
0.659932 -0.389904 1.431900
0.656026 -0.389904 1.431900
0.653584 -0.390637 1.434920
0.649434 -0.390637 1.434920
0.645527 -0.390637 1.434920
0.640645 -0.389904 1.432830
0.635517 -0.389172 1.429820
0.630634 -0.388440 1.427960
0.626240 -0.388195 1.426800
0.623798 -0.388928 1.429820
0.621845 -0.390393 1.434920
0.620136 -0.391614 1.439790
0.615497 -0.391125 1.437930
0.611347 -0.391125 1.437930
0.606708 -0.390393 1.435850
0.604022 -0.391369 1.438860
0.598895 -0.390393 1.435850
0.595233 -0.390637 1.436770
0.591083 -0.390393 1.435850
0.588641 -0.391369 1.439790
0.584002 -0.390881 1.437930
0.579363 -0.390393 1.435850
0.574969 -0.390149 1.434920
0.572527 -0.391125 1.438860
0.569842 -0.391858 1.441880
0.565935 -0.391858 1.441880
0.562761 -0.392346 1.443960
0.558855 -0.392346 1.443960
0.555681 -0.392834 1.445820
0.550798 -0.392102 1.442810
0.547868 -0.392834 1.445820
0.544694 -0.393567 1.447910
0.539323 -0.392346 1.443960
0.533952 -0.391369 1.439790
0.528092 -0.389904 1.434920
0.524674 -0.390149 1.435850
0.519547 -0.389416 1.432830
0.515397 -0.389172 1.431900
0.511246 -0.388684 1.430980
0.507584 -0.389172 1.431900
0.506363 -0.390881 1.438860
0.502701 -0.391125 1.439790
0.499283 -0.391369 1.440950
0.494156 -0.390637 1.437930
0.490005 -0.390393 1.436770
0.486831 -0.390881 1.438860
0.484634 -0.392346 1.443960
0.480728 -0.392346 1.443960
0.476089 -0.391858 1.441880
0.471938 -0.391369 1.440950
0.468764 -0.392102 1.442810
0.465835 -0.392834 1.445820
0.463149 -0.394055 1.450000
0.459731 -0.394543 1.451850
0.454848 -0.393567 1.448840
0.450942 -0.393567 1.448840
0.448256 -0.394787 1.452780
0.443861 -0.394299 1.450920
0.439711 -0.394055 1.450000
0.435804 -0.394055 1.450000
0.732688 -0.386975 1.402910
0.738060 -0.391858 1.420770
0.737083 -0.393567 1.426800
0.733177 -0.393323 1.426800
0.726585 -0.392102 1.421930
0.723167 -0.392102 1.422860
0.719504 -0.392346 1.423790
0.718040 -0.393811 1.428890
0.712668 -0.392834 1.425870
0.711203 -0.394055 1.430980
0.706565 -0.393811 1.429820
0.703635 -0.394299 1.431900
0.698264 -0.393323 1.428890
0.693381 -0.392834 1.426800
0.687765 -0.391858 1.423790
0.683370 -0.391614 1.422860
0.680929 -0.392346 1.425870
0.678487 -0.393078 1.428890
0.673849 -0.392834 1.427960
0.668233 -0.391614 1.423790
0.661885 -0.390393 1.418920
0.657491 -0.389904 1.417990
0.653584 -0.389904 1.417990
0.651143 -0.390637 1.420770
0.647969 -0.391125 1.422860
0.645039 -0.391614 1.424950
0.638936 -0.390393 1.419840
0.635029 -0.390393 1.419840
0.631611 -0.390393 1.420770
0.627705 -0.390393 1.420770
0.623798 -0.390393 1.420770
0.619404 -0.390149 1.419840
0.616230 -0.390637 1.421930
0.612812 -0.390881 1.422860
0.608905 -0.390881 1.422860
0.605976 -0.391369 1.424950
0.602802 -0.391858 1.426800
0.598651 -0.391614 1.425870
0.593036 -0.390393 1.421930
0.589129 -0.390393 1.421930
0.586444 -0.391369 1.424950
0.584735 -0.392590 1.429820
0.579852 -0.392102 1.427960
0.576434 -0.392346 1.428890
0.572527 -0.392346 1.428890
0.569353 -0.392834 1.430980
0.566424 -0.393323 1.432830
0.560808 -0.392346 1.428890
0.557878 -0.392834 1.430980
0.552019 -0.391369 1.425870
0.548357 -0.391614 1.426800
0.544206 -0.391369 1.425870
0.541765 -0.392346 1.429820
0.538347 -0.392834 1.430980
0.533708 -0.392102 1.428890
0.529801 -0.392102 1.428890
0.525651 -0.391858 1.427960
0.522721 -0.392590 1.430980
0.517594 -0.391614 1.426800
0.512223 -0.390393 1.422860
0.506851 -0.389416 1.418920
0.503433 -0.389660 1.419840
0.502701 -0.392102 1.428890
0.500992 -0.393811 1.434920
0.497330 -0.394055 1.435850
0.491714 -0.392590 1.430980
0.486831 -0.391858 1.427960
0.484146 -0.392590 1.430980
0.479995 -0.392346 1.429820
0.475600 -0.392102 1.428890
0.470473 -0.390881 1.424950
0.467055 -0.391369 1.425870
0.463881 -0.391858 1.427960
0.460463 -0.392346 1.429820
0.458022 -0.393567 1.433990
0.454360 -0.393811 1.434920
0.450453 -0.393811 1.434920
0.447035 -0.394055 1.435850
0.444349 -0.395032 1.439790
0.440687 -0.395520 1.440950
0.437269 -0.395764 1.441880
0.715598 -0.387951 1.392940
0.715354 -0.389660 1.399900
0.716575 -0.392590 1.409870
0.714133 -0.393323 1.412880
0.711692 -0.394055 1.415900
0.707785 -0.394055 1.415900
0.704367 -0.394055 1.416830
0.700217 -0.394055 1.416830
0.695822 -0.393811 1.415900
0.690939 -0.393078 1.413810
0.685568 -0.392346 1.410800
0.681661 -0.392102 1.410800
0.676778 -0.391614 1.408940
0.673849 -0.392102 1.410800
0.670919 -0.392590 1.412880
0.667013 -0.392590 1.412880
0.661641 -0.391614 1.409870
0.656758 -0.391125 1.407780
0.651143 -0.389904 1.403840
0.647969 -0.390393 1.405930
0.645527 -0.391125 1.408940
0.641621 -0.391125 1.408940
0.637471 -0.390881 1.407780
0.631611 -0.389660 1.403840
0.629658 -0.390881 1.407780
0.626240 -0.391125 1.408940
0.622822 -0.391369 1.409870
0.617939 -0.390637 1.407780
0.615009 -0.391125 1.409870
0.610370 -0.390637 1.407780
0.606952 -0.390881 1.408940
0.602069 -0.390393 1.406850
0.600116 -0.391369 1.410800
0.596698 -0.391614 1.411960
0.592792 -0.391614 1.411960
0.587664 -0.390637 1.408940
0.584246 -0.391125 1.409870
0.580828 -0.391369 1.410800
0.578631 -0.392346 1.414970
0.573748 -0.391858 1.412880
0.570818 -0.392346 1.414970
0.567400 -0.392590 1.415900
0.564226 -0.393078 1.417990
0.560808 -0.393323 1.418920
0.555681 -0.392590 1.415900
0.553240 -0.393323 1.418920
0.548112 -0.392590 1.415900
0.544939 -0.393078 1.417990
0.540056 -0.392102 1.414970
0.536637 -0.392346 1.415900
0.532243 -0.392102 1.414970
0.528581 -0.392102 1.414970
0.525407 -0.392590 1.416830
0.521500 -0.392590 1.416830
0.518571 -0.393323 1.418920
0.513932 -0.392590 1.416830
0.509049 -0.391858 1.413810
0.503433 -0.390393 1.408940
0.499283 -0.390149 1.407780
0.498550 -0.392590 1.416830
0.496841 -0.394299 1.422860
0.493667 -0.394787 1.424950
0.489517 -0.394543 1.423790
0.484146 -0.393567 1.419840
0.480972 -0.394055 1.421930
0.475600 -0.392590 1.416830
0.470962 -0.392102 1.414970
0.466567 -0.391614 1.412880
0.464125 -0.392590 1.416830
0.461196 -0.393567 1.419840
0.458022 -0.394055 1.421930
0.453871 -0.393811 1.420770
0.449965 -0.393811 1.420770
0.446547 -0.394055 1.421930
0.443129 -0.394543 1.423790
0.439711 -0.394787 1.424950
0.436781 -0.395764 1.427960
0.707297 -0.389172 1.383890
0.711447 -0.393567 1.399900
0.708029 -0.393811 1.400820
0.703146 -0.393078 1.398970
0.701682 -0.394543 1.403840
0.696310 -0.393567 1.400820
0.693381 -0.394055 1.402910
0.688009 -0.393078 1.399900
0.684591 -0.393323 1.400820
0.681173 -0.393567 1.401980
0.677267 -0.393567 1.401980
0.672384 -0.392834 1.399900
0.666768 -0.391858 1.395950
0.663350 -0.392102 1.396880
0.660421 -0.392590 1.398970
0.657002 -0.392834 1.399900
0.653096 -0.392590 1.399900
0.646992 -0.391125 1.394790
0.641621 -0.390393 1.391780
0.637959 -0.390393 1.391780
0.635029 -0.390881 1.393870
0.630634 -0.390393 1.392940
0.627216 -0.390637 1.393870
0.625263 -0.391858 1.397810
0.623066 -0.392834 1.401980
0.619160 -0.392834 1.401980
0.614032 -0.392102 1.398970
0.609394 -0.391369 1.396880
0.604266 -0.390637 1.393870
0.601825 -0.391369 1.396880
0.597430 -0.391125 1.395950
0.595477 -0.392102 1.399900
0.590594 -0.391614 1.397810
0.588153 -0.392346 1.400820
0.584002 -0.392102 1.399900
0.580584 -0.392346 1.400820
0.574480 -0.390881 1.395950
0.570330 -0.390637 1.394790
0.565691 -0.389904 1.392940
0.563982 -0.391369 1.397810
0.561296 -0.392102 1.400820
0.558367 -0.392834 1.402910
0.554949 -0.393078 1.403840
0.550310 -0.392346 1.401980
0.548112 -0.393567 1.405930
0.542985 -0.392590 1.402910
0.539323 -0.392590 1.402910
0.534196 -0.391858 1.399900
0.530778 -0.392102 1.400820
0.528092 -0.392834 1.403840
0.523209 -0.392102 1.400820
0.519791 -0.392346 1.401980
0.514908 -0.391369 1.398970
0.513443 -0.393078 1.405000
0.509781 -0.393323 1.405930
0.505631 -0.393078 1.405000
0.500504 -0.392102 1.400820
0.496353 -0.391614 1.399900
0.494644 -0.393323 1.405930
0.491958 -0.394299 1.408940
0.489029 -0.395032 1.411960
0.486099 -0.395520 1.413810
0.481460 -0.395032 1.411960
0.478286 -0.395520 1.413810
0.473159 -0.394543 1.409870
0.469253 -0.394543 1.409870
0.463637 -0.392834 1.403840
0.460463 -0.393323 1.405930
0.458022 -0.394543 1.409870
0.455336 -0.395520 1.413810
0.450942 -0.395032 1.411960
0.446791 -0.394787 1.410800
0.442396 -0.394299 1.408940
0.439467 -0.395032 1.411960
0.436293 -0.395520 1.413810
0.432875 -0.396008 1.414970
0.710471 -0.396741 1.397810
0.701682 -0.393811 1.387840
0.694601 -0.392102 1.381800
0.693381 -0.393567 1.386910
0.688498 -0.392834 1.384820
0.685568 -0.393323 1.386910
0.682150 -0.393567 1.387840
0.680685 -0.395032 1.392940
0.677023 -0.394787 1.392940
0.672140 -0.394299 1.390850
0.666280 -0.393078 1.386910
0.661397 -0.392346 1.384820
0.657247 -0.392102 1.383890
0.654805 -0.392834 1.386910
0.651875 -0.393323 1.388990
0.647969 -0.393323 1.388990
0.642842 -0.392590 1.385980
0.637471 -0.391614 1.382960
0.633320 -0.391369 1.381800
0.629414 -0.391125 1.381800
0.625751 -0.391125 1.381800
0.622822 -0.391614 1.383890
0.620380 -0.392590 1.386910
0.617450 -0.393078 1.388990
0.613056 -0.392834 1.387840
0.607196 -0.391369 1.382960
0.603290 -0.391369 1.382960
0.599872 -0.391614 1.383890
0.596698 -0.391858 1.384820
0.592792 -0.391614 1.384820
0.589862 -0.392346 1.386910
0.585955 -0.392346 1.386910
0.583514 -0.393078 1.389920
0.579852 -0.393078 1.389920
0.575457 -0.392834 1.388990
0.569353 -0.391125 1.382960
0.563738 -0.389904 1.378790
0.560076 -0.389904 1.378790
0.557634 -0.390637 1.381800
0.554460 -0.391125 1.383890
0.551286 -0.391369 1.384820
0.547868 -0.391614 1.385980
0.543962 -0.391614 1.385980
0.541520 -0.392590 1.388990
0.538102 -0.392834 1.389920
0.535173 -0.393323 1.391780
0.531266 -0.393323 1.391780
0.527604 -0.393323 1.391780
0.524918 -0.394055 1.394790
0.519547 -0.393078 1.390850
0.516129 -0.393323 1.391780
0.511246 -0.392346 1.388990
0.509293 -0.393811 1.393870
0.505142 -0.393567 1.392940
0.501480 -0.393567 1.392940
0.497574 -0.393567 1.392940
0.494644 -0.394055 1.394790
0.491958 -0.395032 1.397810
0.488296 -0.395276 1.398970
0.484878 -0.395520 1.399900
0.481948 -0.396008 1.401980
0.477065 -0.395276 1.398970
0.472915 -0.395032 1.397810
0.468764 -0.394543 1.396880
0.466323 -0.395764 1.400820
0.462172 -0.395520 1.399900
0.458022 -0.395276 1.398970
0.455092 -0.395764 1.400820
0.452406 -0.396985 1.405000
0.448500 -0.396496 1.403840
0.443617 -0.395764 1.400820
0.438490 -0.394543 1.396880
0.435804 -0.395520 1.399900
0.432875 -0.396252 1.402910
0.429212 -0.396252 1.402910
0.707053 -0.398694 1.390850
0.697043 -0.395032 1.378790
0.688742 -0.392590 1.369980
0.687521 -0.393811 1.374850
0.680685 -0.392102 1.368820
0.678243 -0.392834 1.371830
0.675314 -0.393323 1.373920
0.675069 -0.395276 1.380880
0.670675 -0.395032 1.379950
0.665304 -0.394055 1.376930
0.660665 -0.393323 1.374850
0.656758 -0.393323 1.374850
0.654805 -0.394543 1.378790
0.653340 -0.395764 1.383890
0.649190 -0.395520 1.382960
0.642842 -0.394055 1.377860
0.636738 -0.392590 1.372990
0.631611 -0.391614 1.369980
0.626972 -0.391125 1.367890
0.623066 -0.390881 1.367890
0.620624 -0.391858 1.370900
0.617939 -0.392346 1.372990
0.615497 -0.393078 1.375770
0.612079 -0.393323 1.376930
0.608661 -0.393567 1.377860
0.604022 -0.393078 1.375770
0.600360 -0.393078 1.375770
0.596210 -0.392590 1.374850
0.591815 -0.392346 1.373920
0.588885 -0.392834 1.375770
0.584735 -0.392590 1.374850
0.580096 -0.392102 1.372990
0.577166 -0.392590 1.374850
0.574236 -0.393078 1.376930
0.570086 -0.392834 1.375770
0.564714 -0.391614 1.371830
0.559832 -0.390637 1.368820
0.558123 -0.392102 1.373920
0.553972 -0.391858 1.372990
0.551286 -0.392590 1.375770
0.547624 -0.392590 1.375770
0.545183 -0.393567 1.378790
0.540056 -0.392590 1.375770
0.535905 -0.392346 1.374850
0.531999 -0.392102 1.373920
0.528825 -0.392590 1.375770
0.525895 -0.393078 1.377860
0.523698 -0.394299 1.381800
0.520768 -0.394787 1.383890
0.515152 -0.393323 1.378790
0.511734 -0.393567 1.379950
0.508072 -0.393567 1.379950
0.506119 -0.395032 1.384820
0.500748 -0.393811 1.380880
0.496841 -0.393567 1.379950
0.493423 -0.393811 1.380880
0.490249 -0.394543 1.382960
0.488052 -0.395520 1.386910
0.484146 -0.395520 1.386910
0.481216 -0.396252 1.388990
0.477798 -0.396496 1.389920
0.472915 -0.395520 1.386910
0.468520 -0.395032 1.384820
0.465102 -0.395276 1.385980
0.462661 -0.396496 1.389920
0.458266 -0.395764 1.387840
0.453871 -0.395276 1.385980
0.450453 -0.395520 1.386910
0.448988 -0.397473 1.393870
0.445814 -0.398206 1.395950
0.441664 -0.397717 1.394790
0.437025 -0.396985 1.391780
0.432630 -0.396496 1.389920
0.429701 -0.397229 1.392940
0.706565 -0.402112 1.389920
0.696799 -0.398694 1.377860
0.686789 -0.395032 1.365800
0.682394 -0.394787 1.364870
0.676778 -0.393567 1.360930
0.674337 -0.394299 1.363950
0.671896 -0.395032 1.366960
0.669698 -0.396008 1.369980
0.663839 -0.394787 1.365800
0.657735 -0.393323 1.360930
0.654317 -0.393323 1.361860
0.652608 -0.394543 1.365800
0.652120 -0.396496 1.372990
0.649678 -0.397229 1.375770
0.643574 -0.395764 1.370900
0.638203 -0.395032 1.367890
0.633076 -0.394055 1.364870
0.628437 -0.393323 1.362790
0.623798 -0.392834 1.360930
0.619160 -0.392102 1.358840
0.616230 -0.392590 1.360930
0.613056 -0.392834 1.361860
0.611103 -0.394055 1.365800
0.607196 -0.394055 1.365800
0.604022 -0.394299 1.366960
0.600604 -0.394543 1.367890
0.597186 -0.394787 1.368820
0.594501 -0.395276 1.370900
0.588885 -0.394055 1.366960
0.585955 -0.394543 1.368820
0.581072 -0.393811 1.365800
0.578631 -0.394543 1.368820
0.573992 -0.394055 1.366960
0.569842 -0.393567 1.365800
0.564714 -0.392834 1.362790
0.561052 -0.392834 1.362790
0.557390 -0.392834 1.362790
0.554460 -0.393323 1.364870
0.549577 -0.392346 1.361860
0.546159 -0.392590 1.362790
0.543229 -0.393323 1.364870
0.540788 -0.394055 1.367890
0.537126 -0.394055 1.367890
0.533219 -0.394055 1.367890
0.529069 -0.393811 1.366960
0.525407 -0.393811 1.366960
0.522233 -0.394055 1.367890
0.518326 -0.394055 1.367890
0.515397 -0.394543 1.369980
0.510514 -0.393567 1.366960
0.508072 -0.394543 1.369980
0.504654 -0.394787 1.370900
0.501968 -0.395520 1.373920
0.497330 -0.394787 1.370900
0.492691 -0.394299 1.368820
0.488784 -0.393811 1.367890
0.485611 -0.394543 1.369980
0.483169 -0.395276 1.372990
0.480483 -0.396252 1.375770
0.477798 -0.396985 1.378790
0.473891 -0.396985 1.378790
0.468276 -0.395276 1.372990
0.463149 -0.394055 1.368820
0.459731 -0.394299 1.369980
0.457778 -0.395764 1.374850
0.455336 -0.396985 1.378790
0.450209 -0.395764 1.374850
0.447523 -0.396741 1.377860
0.445082 -0.397961 1.381800
0.442885 -0.399182 1.386910
0.438490 -0.398694 1.384820
0.433607 -0.397473 1.380880
0.703146 -0.403821 1.382960
0.698264 -0.403333 1.380880
0.686789 -0.398938 1.365800
0.680929 -0.397473 1.361860
0.673849 -0.395520 1.354900
0.671896 -0.396496 1.358840
0.666768 -0.395764 1.355830
0.663839 -0.396252 1.357910
0.658223 -0.395032 1.353970
0.652852 -0.394055 1.350960
0.649678 -0.394299 1.351880
0.649190 -0.396252 1.358840
0.648213 -0.397961 1.364870
0.645039 -0.398206 1.365800
0.638447 -0.396252 1.359770
0.634541 -0.396252 1.359770
0.629414 -0.395276 1.356990
0.624287 -0.394543 1.353970
0.619160 -0.393567 1.350960
0.615009 -0.393323 1.349800
0.612568 -0.394055 1.352810
0.608417 -0.393811 1.351880
0.606464 -0.394787 1.355830
0.602802 -0.394787 1.355830
0.599139 -0.394787 1.355830
0.594989 -0.394543 1.354900
0.593036 -0.395520 1.358840
0.590106 -0.396008 1.360930
0.586444 -0.396008 1.360930
0.581805 -0.395520 1.358840
0.576678 -0.394543 1.355830
0.573992 -0.395032 1.357910
0.569842 -0.394787 1.356990
0.565203 -0.394299 1.354900
0.559832 -0.393078 1.350960
0.555437 -0.392346 1.348870
0.552995 -0.393323 1.351880
0.549577 -0.393567 1.352810
0.545183 -0.392834 1.350960
0.541032 -0.392590 1.349800
0.538102 -0.393078 1.351880
0.536882 -0.394787 1.357910
0.533952 -0.395520 1.359770
0.530534 -0.395764 1.360930
0.527360 -0.396008 1.361860
0.522721 -0.395276 1.359770
0.518326 -0.394787 1.357910
0.514664 -0.394787 1.357910
0.511002 -0.394787 1.357910
0.507340 -0.394787 1.357910
0.502945 -0.394055 1.355830
0.499039 -0.394055 1.355830
0.496597 -0.395032 1.358840
0.492935 -0.395032 1.358840
0.489517 -0.395276 1.359770
0.486343 -0.395520 1.360930
0.482437 -0.395520 1.360930
0.479507 -0.396008 1.362790
0.475112 -0.395520 1.360930
0.472915 -0.396741 1.364870
0.469741 -0.397229 1.366960
0.465835 -0.396985 1.365800
0.461196 -0.396008 1.362790
0.456313 -0.395276 1.359770
0.452651 -0.395276 1.359770
0.449721 -0.395764 1.361860
0.445570 -0.395520 1.360930
0.443373 -0.396741 1.364870
0.440931 -0.397717 1.368820
0.439222 -0.399670 1.374850
0.434828 -0.398938 1.372990
0.709006 -0.413343 1.401980
0.691916 -0.405530 1.375770
0.682150 -0.401868 1.363950
0.674337 -0.399426 1.355830
0.671896 -0.400403 1.358840
0.665304 -0.398450 1.352810
0.660421 -0.397717 1.350960
0.654805 -0.396496 1.346780
0.650166 -0.396008 1.344930
0.645772 -0.395520 1.344000
0.644063 -0.396741 1.347940
0.640400 -0.396741 1.347940
0.637471 -0.397229 1.349800
0.631367 -0.395764 1.344930
0.629902 -0.396985 1.349800
0.625751 -0.396741 1.348870
0.620624 -0.395764 1.345850
0.614765 -0.394299 1.340980
0.610614 -0.394055 1.339820
0.607196 -0.394299 1.340980
0.604022 -0.394543 1.341910
0.602069 -0.395520 1.345850
0.599628 -0.396496 1.348870
0.595477 -0.396008 1.347940
0.590594 -0.395276 1.344930
0.588153 -0.396008 1.347940
0.585467 -0.396496 1.349800
0.581561 -0.396496 1.349800
0.576189 -0.395276 1.345850
0.572527 -0.395276 1.345850
0.570086 -0.396252 1.348870
0.567644 -0.396985 1.351880
0.562761 -0.396008 1.348870
0.557878 -0.395276 1.345850
0.552507 -0.394055 1.341910
0.548845 -0.394055 1.341910
0.545915 -0.394543 1.344000
0.542009 -0.394299 1.342840
0.538347 -0.394299 1.342840
0.534196 -0.393811 1.341910
0.531999 -0.395032 1.345850
0.529557 -0.396008 1.348870
0.527604 -0.396985 1.352810
0.524918 -0.397961 1.355830
0.520768 -0.397717 1.354900
0.515641 -0.396496 1.350960
0.511246 -0.395764 1.348870
0.508072 -0.396008 1.349800
0.504654 -0.396252 1.350960
0.499771 -0.395520 1.347940
0.495132 -0.394543 1.344930
0.492447 -0.395520 1.347940
0.489273 -0.395764 1.348870
0.487320 -0.397229 1.353970
0.483657 -0.397229 1.353970
0.479995 -0.397229 1.353970
0.474868 -0.396008 1.349800
0.470229 -0.395032 1.346780
0.467055 -0.395276 1.347940
0.464614 -0.396496 1.351880
0.462416 -0.397717 1.355830
0.459487 -0.398206 1.357910
0.454360 -0.397229 1.353970
0.449477 -0.396008 1.349800
0.446059 -0.396252 1.350960
0.442396 -0.396252 1.350960
0.439711 -0.397229 1.353970
0.436293 -0.397473 1.354900
0.434584 -0.399182 1.360930
0.646260 -0.388684 1.306890
0.643086 -0.388928 1.307820
0.642354 -0.390637 1.313850
0.643086 -0.393078 1.322890
0.643818 -0.395764 1.331940
0.641133 -0.396252 1.333790
0.637959 -0.396496 1.334950
0.633564 -0.396252 1.333790
0.630390 -0.396496 1.334950
0.625263 -0.395520 1.331940
0.623554 -0.396741 1.335880
0.619892 -0.396496 1.335880
0.616230 -0.396496 1.335880
0.611591 -0.396008 1.333790
0.606952 -0.395276 1.331940
0.603290 -0.395276 1.331940
0.599628 -0.395276 1.331940
0.598163 -0.396496 1.336810
0.594989 -0.396985 1.337970
0.591327 -0.396741 1.337970
0.585711 -0.395520 1.333790
0.583026 -0.396252 1.335880
0.578387 -0.395520 1.333790
0.575701 -0.396008 1.335880
0.569842 -0.394543 1.330780
0.567888 -0.395764 1.334950
0.563738 -0.395276 1.333790
0.561785 -0.396496 1.337970
0.557878 -0.396252 1.336810
0.554216 -0.396252 1.336810
0.549577 -0.395520 1.334950
0.545915 -0.395520 1.334950
0.543962 -0.396741 1.338900
0.540788 -0.396985 1.339820
0.537126 -0.396985 1.339820
0.532243 -0.396008 1.336810
0.528092 -0.395764 1.335880
0.524918 -0.396008 1.336810
0.522477 -0.396985 1.339820
0.520035 -0.397717 1.342840
0.517350 -0.398694 1.345850
0.512223 -0.397473 1.341910
0.508560 -0.397473 1.341910
0.505631 -0.397961 1.344000
0.503189 -0.398938 1.346780
0.498062 -0.397717 1.342840
0.493179 -0.396741 1.339820
0.490005 -0.396985 1.340980
0.486831 -0.397229 1.341910
0.485366 -0.399182 1.347940
0.480972 -0.398450 1.345850
0.477554 -0.398694 1.346780
0.471938 -0.396985 1.340980
0.466811 -0.395764 1.336810
0.462905 -0.395520 1.335880
0.460219 -0.396252 1.338900
0.458266 -0.397961 1.344000
0.455336 -0.398450 1.345850
0.450942 -0.397717 1.344000
0.446791 -0.397229 1.341910
0.443129 -0.397229 1.341910
0.439711 -0.397473 1.342840
0.436781 -0.398206 1.344930
0.433607 -0.398450 1.345850
0.629658 -0.388440 1.294830
0.630879 -0.391369 1.304800
0.630634 -0.393323 1.311990
0.630634 -0.395764 1.319880
0.627461 -0.396008 1.320800
0.624775 -0.396496 1.322890
0.621113 -0.396496 1.322890
0.618915 -0.397229 1.325910
0.615253 -0.397229 1.325910
0.611591 -0.397229 1.325910
0.606952 -0.396496 1.323820
0.601581 -0.395276 1.319880
0.596454 -0.394299 1.316860
0.594256 -0.395276 1.319880
0.593280 -0.396985 1.325910
0.590838 -0.397717 1.328920
0.588153 -0.398450 1.330780
0.583270 -0.397473 1.327990
0.580828 -0.398206 1.330780
0.574969 -0.396741 1.325910
0.571795 -0.396985 1.326830
0.565691 -0.395276 1.320800
0.563250 -0.396008 1.323820
0.559099 -0.395764 1.322890
0.557146 -0.396985 1.326830
0.552751 -0.396252 1.324980
0.550310 -0.397229 1.327990
0.547624 -0.397717 1.329850
0.544450 -0.397961 1.330780
0.540788 -0.397961 1.330780
0.537126 -0.397961 1.330780
0.533952 -0.398206 1.331940
0.529801 -0.397961 1.330780
0.525895 -0.397473 1.329850
0.521500 -0.396985 1.327990
0.518571 -0.397473 1.329850
0.514664 -0.397229 1.328920
0.511734 -0.397717 1.330780
0.507340 -0.397229 1.328920
0.504410 -0.397717 1.330780
0.502457 -0.398938 1.334950
0.499527 -0.399426 1.336810
0.495132 -0.398938 1.334950
0.490738 -0.398206 1.332870
0.487564 -0.398694 1.333790
0.484146 -0.398938 1.334950
0.481704 -0.399670 1.337970
0.477065 -0.398938 1.334950
0.473403 -0.398938 1.334950
0.468032 -0.397229 1.329850
0.464125 -0.396985 1.328920
0.459975 -0.396741 1.327990
0.456801 -0.396985 1.328920
0.453871 -0.397717 1.330780
0.450942 -0.398206 1.332870
0.448012 -0.398694 1.334950
0.444349 -0.398694 1.334950
0.440443 -0.398450 1.333790
0.437513 -0.399182 1.335880
0.620624 -0.390637 1.290880
0.621357 -0.393323 1.299930
0.621845 -0.396008 1.308980
0.618183 -0.395764 1.308980
0.615009 -0.396008 1.309900
0.612812 -0.396985 1.312920
0.610614 -0.397717 1.315930
0.607440 -0.398206 1.316860
0.603290 -0.397717 1.315930
0.598895 -0.396985 1.313850
0.593280 -0.395764 1.309900
0.591083 -0.396741 1.312920
0.588885 -0.397473 1.315930
0.585223 -0.397473 1.315930
0.582537 -0.398206 1.317790
0.577899 -0.397473 1.315930
0.577410 -0.399426 1.322890
0.572039 -0.398206 1.318950
0.568865 -0.398450 1.319880
0.563005 -0.396985 1.314770
0.560808 -0.397961 1.317790
0.555437 -0.396741 1.313850
0.552995 -0.397473 1.316860
0.547868 -0.396252 1.312920
0.545427 -0.397229 1.315930
0.541765 -0.397229 1.315930
0.540300 -0.398694 1.320800
0.535173 -0.397473 1.316860
0.531510 -0.397229 1.316860
0.527360 -0.396985 1.315930
0.525163 -0.397961 1.318950
0.521012 -0.397473 1.317790
0.517106 -0.397229 1.316860
0.513932 -0.397473 1.317790
0.510758 -0.397717 1.318950
0.507584 -0.398206 1.319880
0.503922 -0.397961 1.319880
0.500259 -0.397961 1.319880
0.497818 -0.398938 1.322890
0.494644 -0.399182 1.323820
0.490738 -0.398938 1.322890
0.486587 -0.398694 1.321960
0.483169 -0.398694 1.321960
0.480483 -0.399426 1.324980
0.478042 -0.400403 1.327990
0.473647 -0.399670 1.325910
0.470473 -0.400159 1.326830
0.465590 -0.398938 1.322890
0.462172 -0.399182 1.323820
0.458022 -0.398450 1.321960
0.454115 -0.398206 1.320800
0.449721 -0.397473 1.318950
0.445570 -0.396985 1.316860
0.442396 -0.397229 1.317790
0.439711 -0.398206 1.320800
0.436537 -0.398450 1.321960
0.613544 -0.391858 1.283930
0.614765 -0.395032 1.293900
0.615986 -0.397961 1.303870
0.611835 -0.397473 1.302950
0.609149 -0.398206 1.304800
0.606464 -0.398694 1.306890
0.602313 -0.398450 1.305960
0.597430 -0.397473 1.302950
0.593768 -0.397229 1.302950
0.589862 -0.396985 1.301790
0.587420 -0.397961 1.304800
0.582537 -0.396985 1.301790
0.579119 -0.396741 1.301790
0.576189 -0.397473 1.303870
0.573260 -0.397717 1.304800
0.572527 -0.399670 1.311990
0.568133 -0.399182 1.309900
0.564959 -0.399426 1.310830
0.560076 -0.398450 1.307820
0.556169 -0.398206 1.306890
0.550798 -0.396741 1.302950
0.547624 -0.397229 1.303870
0.544450 -0.397473 1.304800
0.542497 -0.398694 1.308980
0.538591 -0.398206 1.307820
0.536149 -0.399182 1.310830
0.530290 -0.397229 1.304800
0.527360 -0.397961 1.306890
0.523453 -0.397473 1.305960
0.521500 -0.398694 1.309900
0.517594 -0.398450 1.308980
0.512711 -0.397473 1.305960
0.509537 -0.397717 1.306890
0.506851 -0.398450 1.308980
0.504410 -0.399182 1.311990
0.500504 -0.398938 1.310830
0.496597 -0.398694 1.309900
0.493667 -0.399182 1.311990
0.490493 -0.399426 1.312920
0.486831 -0.399426 1.312920
0.482925 -0.399182 1.311990
0.479019 -0.398938 1.310830
0.476577 -0.399670 1.313850
0.473647 -0.400403 1.315930
0.470473 -0.400647 1.316860
0.466567 -0.400403 1.315930
0.462416 -0.399670 1.313850
0.458754 -0.399670 1.313850
0.455336 -0.399670 1.313850
0.451674 -0.399670 1.313850
0.447768 -0.399426 1.312920
0.443617 -0.398694 1.310830
0.440199 -0.398938 1.311990
0.436781 -0.398938 1.311990
0.608417 -0.392102 1.272790
0.607685 -0.393811 1.278820
0.609394 -0.397229 1.289960
0.607196 -0.397961 1.292970
0.603534 -0.397961 1.292970
0.602313 -0.399426 1.297840
0.597919 -0.398938 1.295990
0.592792 -0.397961 1.292970
0.588397 -0.397229 1.290880
0.587176 -0.398694 1.295990
0.584490 -0.399182 1.297840
0.579119 -0.397961 1.293900
0.573748 -0.396741 1.289960
0.571062 -0.397229 1.291810
0.568865 -0.398206 1.294830
0.566668 -0.398938 1.297840
0.561785 -0.398206 1.294830
0.559343 -0.398938 1.297840
0.555437 -0.398694 1.296910
0.551530 -0.398206 1.295990
0.546648 -0.397229 1.292970
0.543474 -0.397717 1.293900
0.540788 -0.398206 1.295990
0.538102 -0.398694 1.297840
0.534196 -0.398450 1.296910
0.531022 -0.398694 1.297840
0.526139 -0.397717 1.294830
0.522965 -0.397961 1.295990
0.519791 -0.398206 1.296910
0.517594 -0.399182 1.299930
0.513199 -0.398694 1.297840
0.509781 -0.398450 1.297840
0.506119 -0.398450 1.297840
0.504898 -0.400403 1.303870
0.502213 -0.400891 1.305960
0.498550 -0.400891 1.305960
0.493912 -0.399915 1.302950
0.490005 -0.399670 1.301790
0.487808 -0.400891 1.305960
0.482925 -0.399670 1.301790
0.479019 -0.399426 1.300860
0.475845 -0.399670 1.301790
0.473647 -0.400891 1.305960
0.471206 -0.401624 1.308980
0.467299 -0.401379 1.307820
0.463149 -0.400891 1.305960
0.458754 -0.400159 1.303870
0.455336 -0.400159 1.303870
0.451674 -0.400159 1.303870
0.448256 -0.400159 1.303870
0.445326 -0.400647 1.305960
0.441176 -0.400159 1.303870
0.436537 -0.399182 1.300860
0.605731 -0.393811 1.266990
0.604022 -0.394787 1.270940
0.604266 -0.397229 1.278820
0.603534 -0.399182 1.284850
0.600848 -0.399670 1.286940
0.599139 -0.400891 1.290880
0.594745 -0.400159 1.288800
0.588397 -0.398206 1.283000
0.584002 -0.397717 1.280910
0.582293 -0.398938 1.284850
0.580340 -0.399915 1.288800
0.576434 -0.399670 1.287870
0.570574 -0.397961 1.283000
0.567644 -0.398450 1.283930
0.564470 -0.398694 1.284850
0.561296 -0.398938 1.285780
0.557390 -0.398450 1.284850
0.555193 -0.399426 1.287870
0.552019 -0.399670 1.288800
0.548112 -0.399426 1.287870
0.542741 -0.397961 1.283930
0.539811 -0.398450 1.284850
0.537126 -0.398938 1.286940
0.534684 -0.399915 1.289960
0.530290 -0.399182 1.287870
0.526139 -0.398450 1.285780
0.522233 -0.398206 1.284850
0.519547 -0.398694 1.286940
0.516617 -0.399426 1.288800
0.513688 -0.399670 1.289960
0.508805 -0.398694 1.286940
0.505387 -0.398694 1.286940
0.502213 -0.398938 1.287870
0.500259 -0.400159 1.291810
0.497574 -0.400891 1.293900
0.493912 -0.400647 1.293900
0.490982 -0.401135 1.294830
0.488540 -0.401868 1.297840
0.485611 -0.402600 1.299930
0.480239 -0.400891 1.294830
0.475600 -0.400159 1.291810
0.472427 -0.400403 1.292970
0.470229 -0.401379 1.295990
0.467055 -0.401624 1.296910
0.463393 -0.401624 1.296910
0.459243 -0.400891 1.294830
0.455336 -0.400647 1.293900
0.451186 -0.399915 1.291810
0.448012 -0.400159 1.292970
0.445570 -0.401135 1.295990
0.442396 -0.401379 1.296910
0.439222 -0.401868 1.297840
0.434339 -0.400647 1.293900
0.601337 -0.394299 1.257950
0.599384 -0.395276 1.260960
0.597674 -0.396496 1.264910
0.598407 -0.399182 1.273950
0.596210 -0.400159 1.276970
0.592792 -0.399915 1.276970
0.587909 -0.398938 1.273950
0.584735 -0.399182 1.274880
0.580340 -0.398694 1.272790
0.579608 -0.400403 1.278820
0.576922 -0.401135 1.280910
0.575213 -0.402356 1.284850
0.568865 -0.400403 1.278820
0.565447 -0.400159 1.278820
0.561785 -0.400159 1.278820
0.557878 -0.399915 1.277900
0.553972 -0.399426 1.276970
0.552507 -0.401135 1.281840
0.549577 -0.401379 1.283000
0.545427 -0.400891 1.281840
0.539079 -0.398694 1.274880
0.536882 -0.399670 1.277900
0.532975 -0.399426 1.276970
0.530534 -0.400159 1.279980
0.525895 -0.399182 1.276970
0.521989 -0.398938 1.275810
0.518571 -0.398938 1.275810
0.516617 -0.400159 1.279980
0.512711 -0.399670 1.278820
0.509293 -0.399670 1.278820
0.504654 -0.398694 1.275810
0.502945 -0.400403 1.280910
0.500015 -0.400647 1.281840
0.497574 -0.401624 1.284850
0.493423 -0.400891 1.283000
0.490249 -0.401135 1.283930
0.487808 -0.402112 1.286940
0.485366 -0.403088 1.289960
0.481948 -0.403088 1.289960
0.477309 -0.402112 1.286940
0.471938 -0.400403 1.281840
0.469253 -0.401135 1.283930
0.465346 -0.400647 1.283000
0.462172 -0.401135 1.283930
0.458510 -0.400647 1.283000
0.455580 -0.401379 1.284850
0.451186 -0.400403 1.281840
0.447279 -0.399915 1.280910
0.443861 -0.399915 1.280910
0.441420 -0.400891 1.283930
0.435072 -0.401624 1.285780
0.598651 -0.396008 1.251920
0.595965 -0.396496 1.253770
0.594012 -0.397473 1.256790
0.592792 -0.398938 1.261890
0.591083 -0.400159 1.265830
0.587176 -0.399670 1.264910
0.584735 -0.400403 1.266990
0.582537 -0.401135 1.269780
0.580340 -0.402112 1.272790
0.576922 -0.402112 1.272790
0.573260 -0.402112 1.272790
0.570574 -0.402600 1.274880
0.565447 -0.401379 1.270940
0.561541 -0.400891 1.269780
0.557146 -0.400159 1.267920
0.553484 -0.400159 1.267920
0.550066 -0.400159 1.267920
0.548357 -0.401379 1.271870
0.546159 -0.402356 1.274880
0.542497 -0.402356 1.274880
0.536637 -0.400403 1.268850
0.533952 -0.400891 1.270940
0.530534 -0.400891 1.270940
0.527360 -0.401135 1.271870
0.522721 -0.400159 1.268850
0.518815 -0.399915 1.267920
0.516617 -0.400891 1.270940
0.514176 -0.401624 1.273950
0.510025 -0.401135 1.271870
0.505631 -0.400403 1.269780
0.502213 -0.400403 1.269780
0.499527 -0.400891 1.271870
0.496841 -0.401624 1.273950
0.493423 -0.401624 1.273950
0.490005 -0.401624 1.273950
0.486343 -0.401379 1.273950
0.483413 -0.401868 1.274880
0.481460 -0.403088 1.278820
0.476821 -0.402112 1.275810
0.473647 -0.402356 1.276970
0.468764 -0.401135 1.272790
0.465346 -0.401135 1.272790
0.460707 -0.400159 1.269780
0.458022 -0.400647 1.271870
0.454848 -0.401135 1.272790
0.452406 -0.401868 1.275810
0.448744 -0.401624 1.274880
0.444838 -0.401379 1.273950
0.440443 -0.400403 1.270940
0.438002 -0.401379 1.273950
0.434095 -0.400891 1.272790
0.603778 -0.398206 1.247980
0.599139 -0.397473 1.245890
0.594256 -0.396496 1.242870
0.590838 -0.396496 1.242870
0.589373 -0.397717 1.246820
0.588641 -0.399426 1.252850
0.587909 -0.401379 1.258880
0.583026 -0.400403 1.255860
0.580584 -0.400891 1.257950
0.578387 -0.401868 1.260960
0.576189 -0.402844 1.263980
0.573260 -0.403088 1.264910
0.568377 -0.402112 1.261890
0.566179 -0.402844 1.264910
0.561541 -0.401868 1.261890
0.557390 -0.401624 1.260960
0.554460 -0.401868 1.261890
0.551775 -0.402356 1.263980
0.547624 -0.401624 1.261890
0.543718 -0.401379 1.260960
0.539811 -0.400891 1.259800
0.537126 -0.401624 1.261890
0.532487 -0.400647 1.258880
0.530534 -0.401868 1.262820
0.527116 -0.401868 1.262820
0.524186 -0.402112 1.263980
0.519791 -0.401379 1.261890
0.516861 -0.401624 1.262820
0.514420 -0.402600 1.265830
0.510758 -0.402356 1.264910
0.505875 -0.401379 1.261890
0.502457 -0.401379 1.261890
0.499527 -0.401624 1.262820
0.497085 -0.402600 1.265830
0.493667 -0.402600 1.265830
0.489517 -0.401868 1.263980
0.486099 -0.401868 1.263980
0.482681 -0.401868 1.263980
0.479995 -0.402356 1.265830
0.475845 -0.401624 1.263980
0.471450 -0.401135 1.261890
0.468764 -0.401624 1.263980
0.465102 -0.401379 1.262820
0.462416 -0.401868 1.264910
0.456801 -0.400159 1.258880
0.453627 -0.400403 1.259800
0.450697 -0.400647 1.260960
0.449232 -0.402600 1.266990
0.446303 -0.402844 1.267920
0.442885 -0.402844 1.267920
0.438246 -0.401868 1.264910
0.434828 -0.401868 1.264910
0.431166 -0.401624 1.263980
0.657491 -0.403333 1.249830
0.651387 -0.401624 1.244960
0.647969 -0.401624 1.244960
0.644795 -0.401868 1.245890
0.642842 -0.402844 1.248900
0.639424 -0.402600 1.248900
0.635762 -0.402600 1.248900
0.631855 -0.402112 1.247980
0.628681 -0.402356 1.248900
0.625751 -0.402600 1.249830
0.621845 -0.402356 1.248900
0.617206 -0.401624 1.246820
0.612812 -0.400891 1.244960
0.608905 -0.400403 1.243800
0.604755 -0.400159 1.242870
0.599384 -0.398694 1.238930
0.594989 -0.397961 1.236840
0.590106 -0.396985 1.233830
0.586200 -0.396496 1.232900
0.584246 -0.397473 1.235910
0.583514 -0.399426 1.241940
0.583758 -0.401868 1.249830
0.580828 -0.402112 1.250990
0.578387 -0.402844 1.252850
0.574725 -0.402600 1.252850
0.571795 -0.403088 1.253770
0.566912 -0.401868 1.250990
0.564470 -0.402600 1.252850
0.561296 -0.402844 1.253770
0.559343 -0.403821 1.256790
0.554460 -0.402844 1.253770
0.550554 -0.402356 1.252850
0.547868 -0.403088 1.254930
0.543229 -0.401868 1.251920
0.539323 -0.401624 1.250990
0.533708 -0.399915 1.245890
0.531510 -0.400891 1.248900
0.528092 -0.400891 1.248900
0.525895 -0.401868 1.251920
0.524186 -0.403088 1.255860
0.520280 -0.402600 1.254930
0.516617 -0.402356 1.253770
0.511979 -0.401379 1.250990
0.510025 -0.402600 1.254930
0.506119 -0.402112 1.253770
0.502701 -0.402112 1.253770
0.499039 -0.401868 1.252850
0.495865 -0.402112 1.253770
0.492935 -0.402356 1.254930
0.489517 -0.402356 1.254930
0.485611 -0.402112 1.253770
0.482681 -0.402356 1.254930
0.478774 -0.402112 1.253770
0.475845 -0.402356 1.254930
0.471694 -0.401624 1.252850
0.467788 -0.401379 1.251920
0.464858 -0.401624 1.252850
0.461440 -0.401624 1.252850
0.458266 -0.401868 1.253770
0.453139 -0.400159 1.248900
0.450453 -0.400891 1.250990
0.447768 -0.401624 1.252850
0.446547 -0.403333 1.258880
0.443373 -0.403821 1.259800
0.439955 -0.403821 1.259800
0.435804 -0.403088 1.257950
0.431898 -0.402356 1.255860
0.667501 -0.404797 1.241940
0.663594 -0.404309 1.240780
0.658467 -0.403088 1.237770
0.653340 -0.402112 1.234990
0.649678 -0.402112 1.234990
0.645772 -0.401624 1.233830
0.642842 -0.401868 1.234990
0.638691 -0.401379 1.233830
0.635762 -0.401624 1.234990
0.632344 -0.401624 1.234990
0.630390 -0.402600 1.237770
0.626240 -0.402112 1.236840
0.623310 -0.402356 1.237770
0.619892 -0.402356 1.237770
0.615741 -0.401868 1.236840
0.610859 -0.400891 1.233830
0.605976 -0.399670 1.230810
0.602069 -0.399426 1.229880
0.598651 -0.399182 1.229880
0.595233 -0.399182 1.229880
0.578387 -0.401379 1.237770
0.577166 -0.403088 1.242870
0.573748 -0.402844 1.242870
0.569353 -0.402356 1.240780
0.565447 -0.401868 1.239860
0.560564 -0.400891 1.236840
0.559099 -0.402112 1.240780
0.556902 -0.403088 1.243800
0.554460 -0.403577 1.245890
0.550066 -0.402844 1.243800
0.546648 -0.402844 1.243800
0.544206 -0.403577 1.245890
0.539811 -0.402844 1.243800
0.535905 -0.402356 1.242870
0.530778 -0.401135 1.238930
0.527848 -0.401379 1.239860
0.523942 -0.401135 1.238930
0.521500 -0.401624 1.240780
0.518326 -0.401868 1.241940
0.515885 -0.402600 1.243800
0.512467 -0.402600 1.243800
0.509537 -0.402844 1.244960
0.505142 -0.402112 1.242870
0.501724 -0.402112 1.242870
0.498062 -0.401624 1.241940
0.494644 -0.401624 1.241940
0.490005 -0.400647 1.238930
0.487075 -0.400891 1.239860
0.484390 -0.401624 1.241940
0.481704 -0.402356 1.243800
0.478774 -0.402600 1.244960
0.475112 -0.402112 1.243800
0.472427 -0.402844 1.245890
0.469497 -0.403088 1.246820
0.466079 -0.403088 1.246820
0.461928 -0.402356 1.244960
0.457045 -0.401135 1.240780
0.454360 -0.401624 1.242870
0.449965 -0.400647 1.239860
0.447523 -0.401624 1.242870
0.444594 -0.402112 1.243800
0.442640 -0.403333 1.247980
0.439955 -0.403821 1.249830
0.436537 -0.403821 1.249830
0.662374 -0.404797 1.231970
0.646016 -0.400891 1.220840
0.643574 -0.401624 1.222930
0.640645 -0.401624 1.223850
0.637715 -0.401868 1.224780
0.633564 -0.401624 1.223850
0.630146 -0.401379 1.223850
0.626240 -0.401135 1.222930
0.623798 -0.401624 1.224780
0.620869 -0.401868 1.225940
0.616962 -0.401379 1.224780
0.612812 -0.401135 1.223850
0.608905 -0.400647 1.222930
0.605487 -0.400647 1.222930
0.564470 -0.402112 1.229880
0.560564 -0.401624 1.228960
0.556658 -0.401379 1.227800
0.555925 -0.403333 1.233830
0.553972 -0.404065 1.236840
0.551286 -0.404797 1.238930
0.546648 -0.403821 1.235910
0.542253 -0.403088 1.233830
0.539323 -0.403333 1.234990
0.535417 -0.402844 1.233830
0.531999 -0.402844 1.233830
0.527848 -0.402112 1.231970
0.524918 -0.402600 1.232900
0.521500 -0.402356 1.232900
0.517350 -0.401868 1.230810
0.513443 -0.401379 1.229880
0.509781 -0.401135 1.228960
0.506607 -0.401379 1.229880
0.504166 -0.401868 1.231970
0.501236 -0.402112 1.232900
0.497330 -0.401868 1.231970
0.493912 -0.401868 1.231970
0.489029 -0.400403 1.227800
0.484634 -0.399426 1.224780
0.480728 -0.399182 1.223850
0.480239 -0.401379 1.230810
0.479995 -0.404065 1.238930
0.477309 -0.404553 1.240780
0.473403 -0.404309 1.239860
0.469008 -0.403333 1.236840
0.466323 -0.403821 1.238930
0.461440 -0.402600 1.234990
0.445326 -0.403088 1.236840
0.614277 -0.400891 1.212950
0.554949 -0.403333 1.223850
0.553240 -0.404553 1.227800
0.549821 -0.404553 1.227800
0.546892 -0.404797 1.228960
0.541765 -0.403577 1.224780
0.538835 -0.403821 1.225940
0.536393 -0.404309 1.227800
0.531999 -0.403577 1.225940
0.527848 -0.403088 1.223850
0.523698 -0.402356 1.222000
0.521989 -0.403577 1.225940
0.519059 -0.403821 1.226870
0.514664 -0.403088 1.224780
