-0.057619 0.460463 3.642990
-0.067385 0.459975 3.639980
-0.077151 0.459731 3.637890
-0.087161 0.460463 3.642990
-0.097171 0.460707 3.644850
-0.107181 0.460463 3.643920
-0.116703 0.459731 3.636960
-0.126713 0.459487 3.635800
-0.136479 0.459243 3.634880
-0.146489 0.459731 3.637890
-0.156499 0.459975 3.638820
-0.166509 0.459975 3.640910
-0.176275 0.459731 3.638820
-0.185797 0.459243 3.633950
-0.195807 0.459487 3.636960
-0.226814 0.461684 3.654820
0.401135 0.453627 3.671990
0.390393 0.452895 3.665960
0.379406 0.451674 3.654820
0.369152 0.451186 3.650880
0.359142 0.450942 3.649950
0.349132 0.450942 3.648790
0.338389 0.450209 3.641830
0.328135 0.449477 3.636960
0.308115 0.449232 3.633950
0.298593 0.449477 3.636960
0.289071 0.450453 3.643920
0.279305 0.450453 3.644850
0.269295 0.450209 3.641830
0.259529 0.450453 3.643920
0.250008 0.451430 3.651810
0.240730 0.452651 3.661780
0.230720 0.452406 3.659930
0.220222 0.451430 3.651810
0.209967 0.450453 3.643920
0.199957 0.450697 3.644850
0.190435 0.451674 3.651810
0.180914 0.452406 3.659000
0.171148 0.452651 3.659930
0.160894 0.451918 3.654820
0.150639 0.451186 3.648790
0.140629 0.450942 3.646940
0.130863 0.450942 3.646940
0.120609 0.450697 3.643920
0.110843 0.450209 3.640910
0.100589 0.449477 3.634880
0.090823 0.449232 3.632790
0.080813 0.449721 3.635800
0.071047 0.450209 3.639980
0.061281 0.450453 3.642990
0.051271 0.450453 3.641830
0.041505 0.450453 3.642990
0.031495 0.450453 3.642990
0.021485 0.450942 3.646940
0.011719 0.451186 3.648790
0.001709 0.451186 3.647870
-0.007813 0.450453 3.641830
-0.017823 0.449232 3.631860
-0.027589 0.449232 3.631860
-0.037599 0.449721 3.636960
-0.047609 0.450697 3.644850
-0.057619 0.450942 3.645780
-0.067385 0.450209 3.639980
-0.077151 0.449965 3.637890
-0.087161 0.450453 3.642990
-0.097171 0.450942 3.646940
-0.107181 0.450942 3.646940
-0.116947 0.450209 3.639980
-0.126713 0.449477 3.634880
-0.136479 0.449232 3.631860
-0.146489 0.449477 3.634880
-0.156499 0.449965 3.638820
-0.166509 0.450697 3.643920
-0.176275 0.449965 3.638820
-0.185797 0.449232 3.633950
-0.195563 0.448988 3.631860
-0.226814 0.452162 3.657840
0.401379 0.443861 3.673840
0.390637 0.443129 3.666880
0.379406 0.441908 3.655980
0.369152 0.441420 3.651810
0.359142 0.441176 3.650880
0.349132 0.440931 3.648790
0.338389 0.440199 3.641830
0.328135 0.439711 3.636960
0.308115 0.439222 3.632790
0.298593 0.439711 3.637890
0.289315 0.440687 3.645780
0.279550 0.440931 3.646940
0.269295 0.440687 3.643920
0.259529 0.440687 3.644850
0.250252 0.441908 3.654820
0.240974 0.442885 3.662940
0.230720 0.442640 3.660850
0.220466 0.441908 3.654820
0.210211 0.441176 3.647870
0.200446 0.441664 3.651810
0.190680 0.442152 3.655980
0.181158 0.442640 3.660850
0.171148 0.442640 3.660850
0.160894 0.442152 3.654820
0.150884 0.441664 3.650880
0.140629 0.441176 3.647870
0.130863 0.441420 3.648790
0.120853 0.441176 3.646940
0.110843 0.440931 3.644850
0.100833 0.439955 3.637890
0.090823 0.439711 3.634880
0.080813 0.439711 3.634880
0.071047 0.440199 3.638820
0.061281 0.440687 3.642990
0.051271 0.440687 3.642990
0.041505 0.440687 3.642990
0.031495 0.440687 3.642990
0.021485 0.441176 3.647870
0.011719 0.441664 3.651810
0.001709 0.441664 3.650880
-0.008057 0.440931 3.644850
-0.017823 0.439711 3.635800
-0.027589 0.439467 3.633950
-0.037599 0.440199 3.638820
-0.047609 0.440931 3.644850
-0.057619 0.440931 3.644850
-0.067385 0.440443 3.640910
-0.077151 0.440199 3.638820
-0.087405 0.440931 3.645780
-0.097415 0.441420 3.649950
-0.107181 0.441420 3.649950
-0.116947 0.440687 3.642990
-0.126713 0.439955 3.637890
-0.136479 0.439467 3.632790
-0.146245 0.439467 3.633950
-0.156499 0.440199 3.638820
-0.166509 0.440931 3.644850
-0.176519 0.440443 3.641830
-0.186041 0.439467 3.634880
-0.195807 0.439222 3.632790
0.411389 0.434095 3.674770
0.401624 0.434339 3.675930
0.390637 0.433119 3.666880
0.379650 0.432142 3.656910
0.369396 0.431654 3.653900
0.359630 0.431898 3.654820
0.349376 0.431654 3.652970
0.338633 0.430433 3.641830
0.328135 0.429701 3.636960
0.318125 0.429456 3.634880
0.308359 0.429701 3.636960
0.299081 0.430433 3.642990
0.289560 0.430921 3.646940
0.279550 0.430921 3.645780
0.269295 0.430677 3.643920
0.259774 0.431410 3.648790
0.250496 0.432386 3.659000
0.241218 0.433363 3.666880
0.220710 0.432630 3.659930
0.210456 0.431898 3.652970
0.200690 0.432142 3.655980
0.190924 0.432630 3.659000
0.181158 0.432875 3.661780
0.171148 0.433119 3.662940
0.160894 0.432386 3.657840
0.150884 0.431898 3.652970
0.140629 0.431410 3.647870
0.130863 0.431410 3.648790
0.120853 0.431410 3.647870
0.110843 0.431410 3.647870
0.100833 0.430677 3.642990
0.090823 0.430677 3.641830
0.081057 0.430433 3.640910
0.071047 0.430921 3.643920
0.061281 0.431166 3.646940
0.051271 0.431166 3.645780
0.041505 0.430921 3.643920
0.031495 0.430677 3.642990
0.021485 0.431410 3.648790
0.011719 0.432142 3.653900
0.001709 0.431898 3.651810
-0.008057 0.430921 3.644850
-0.017823 0.430189 3.637890
-0.027589 0.429945 3.635800
-0.037599 0.430189 3.638820
-0.047609 0.430921 3.643920
-0.057619 0.430677 3.642990
-0.067385 0.430677 3.641830
-0.077395 0.430677 3.642990
-0.087405 0.431410 3.647870
-0.097415 0.431898 3.651810
-0.107181 0.431654 3.649950
-0.117191 0.431166 3.645780
-0.126713 0.430189 3.637890
-0.146489 0.429945 3.636960
-0.156499 0.430677 3.641830
-0.166753 0.430921 3.645780
-0.176519 0.430677 3.641830
-0.186041 0.430189 3.637890
-0.195807 0.429945 3.635800
-0.227302 0.433119 3.663870
0.421400 0.424085 3.673840
0.411634 0.424329 3.676860
0.401624 0.424329 3.676860
0.390637 0.423353 3.667810
0.379650 0.422132 3.657840
0.369640 0.422132 3.656910
0.359874 0.422376 3.657840
0.349864 0.422132 3.655980
0.338878 0.420911 3.645780
0.328379 0.420179 3.638820
0.318369 0.419935 3.637890
0.308603 0.420179 3.639980
0.299326 0.420911 3.644850
0.289560 0.421400 3.648790
0.279794 0.421400 3.648790
0.269784 0.421155 3.647870
0.260018 0.421644 3.650880
0.250740 0.422620 3.659000
0.240974 0.423353 3.664800
0.230964 0.423109 3.663870
0.220954 0.422620 3.659930
0.210700 0.422132 3.655980
0.200690 0.422376 3.656910
0.190924 0.422864 3.660850
0.181158 0.423109 3.663870
0.171392 0.423353 3.664800
0.161138 0.422864 3.659930
0.151128 0.422376 3.656910
0.140873 0.421888 3.651810
0.130863 0.421888 3.651810
0.120853 0.421155 3.645780
0.110843 0.421400 3.647870
0.081057 0.421155 3.644850
0.071291 0.421155 3.645780
0.061281 0.421644 3.648790
0.051271 0.421400 3.646940
0.041505 0.421155 3.644850
0.031495 0.420667 3.640910
0.021485 0.421400 3.647870
0.011719 0.422132 3.653900
0.001709 0.422132 3.653900
-0.008057 0.421400 3.646940
-0.017823 0.420423 3.639980
-0.027833 0.419935 3.635800
-0.037599 0.420423 3.639980
-0.047609 0.421155 3.644850
-0.057619 0.420911 3.643920
-0.067385 0.420911 3.642990
-0.077395 0.420911 3.642990
-0.087405 0.421644 3.649950
-0.097415 0.421888 3.652970
-0.107425 0.421644 3.650880
-0.117191 0.421400 3.647870
-0.126957 0.420667 3.641830
-0.136723 0.420667 3.640910
-0.146733 0.420911 3.642990
-0.156743 0.421155 3.646940
-0.166753 0.421400 3.648790
-0.176519 0.420911 3.644850
-0.186285 0.420423 3.639980
-0.196051 0.420179 3.636960
-0.227546 0.423353 3.665960
0.440931 0.413831 3.671990
0.430677 0.413343 3.668970
0.421644 0.414319 3.675930
0.411878 0.414563 3.678950
0.401868 0.414563 3.678950
0.391125 0.413831 3.670830
0.379894 0.412610 3.659930
0.369884 0.412366 3.657840
0.360118 0.412610 3.659930
0.350108 0.412610 3.659930
0.339366 0.411389 3.649950
0.328379 0.410413 3.639980
0.318613 0.410169 3.638820
0.308847 0.410657 3.641830
0.299570 0.411389 3.647870
0.289804 0.411634 3.650880
0.279794 0.411634 3.649950
0.250496 0.412366 3.655980
0.240974 0.413099 3.663870
0.231208 0.413587 3.666880
0.220954 0.413099 3.662940
0.210700 0.412610 3.657840
0.200690 0.412366 3.656910
0.191168 0.413099 3.661780
0.181402 0.413587 3.666880
0.171392 0.413587 3.665960
0.161138 0.412854 3.660850
0.151128 0.412610 3.657840
0.140873 0.411878 3.651810
0.130863 0.411878 3.650880
0.120609 0.410901 3.642990
0.081057 0.411145 3.644850
0.071291 0.411389 3.645780
0.061281 0.411878 3.650880
0.051515 0.411634 3.649950
0.041505 0.411389 3.645780
0.031495 0.410657 3.640910
0.021485 0.411634 3.647870
0.011719 0.412122 3.652970
0.001709 0.412366 3.655980
-0.008057 0.411389 3.646940
-0.017823 0.410657 3.640910
-0.027833 0.410413 3.636960
-0.037599 0.410901 3.641830
-0.047609 0.411389 3.646940
-0.057619 0.411145 3.644850
-0.067385 0.410901 3.642990
-0.077395 0.410901 3.641830
-0.087405 0.411634 3.648790
-0.097415 0.412122 3.653900
-0.107425 0.412122 3.652970
-0.117191 0.411634 3.648790
-0.126957 0.410901 3.641830
-0.136723 0.410901 3.641830
-0.146977 0.411145 3.645780
-0.156987 0.411878 3.650880
-0.166997 0.411878 3.651810
-0.176519 0.411145 3.645780
-0.186285 0.410657 3.639980
-0.195807 0.410169 3.635800
-0.227546 0.413587 3.666880
0.441176 0.403821 3.672910
0.430921 0.403577 3.669900
0.421644 0.404309 3.675930
0.411878 0.404553 3.677790
0.401868 0.404553 3.678950
0.391369 0.404065 3.672910
0.380139 0.402600 3.660850
0.369884 0.402356 3.657840
0.360118 0.402844 3.660850
0.350352 0.403088 3.662940
0.339610 0.402112 3.653900
0.328623 0.400647 3.641830
0.318857 0.400647 3.641830
0.309091 0.400891 3.643920
0.299570 0.401624 3.649950
0.290048 0.401868 3.652970
0.280038 0.401868 3.652970
0.250252 0.402112 3.653900
0.240974 0.403333 3.663870
0.231208 0.403577 3.667810
0.220954 0.403088 3.662940
0.210944 0.402844 3.659000
0.200690 0.402600 3.656910
0.191168 0.403088 3.662940
0.181402 0.403577 3.666880
0.171392 0.403577 3.666880
0.161138 0.403088 3.660850
0.151128 0.402844 3.659930
0.140873 0.402356 3.653900
0.131108 0.402356 3.653900
0.120609 0.401135 3.642990
0.110843 0.401135 3.642990
0.091067 0.401135 3.643920
0.081057 0.400891 3.641830
0.071047 0.400891 3.641830
0.061281 0.401868 3.649950
0.051515 0.401868 3.650880
0.041505 0.401624 3.646940
0.031495 0.401135 3.642990
0.021485 0.401624 3.648790
0.011719 0.402356 3.654820
0.001709 0.402600 3.655980
-0.008057 0.402112 3.651810
-0.017823 0.401379 3.644850
-0.027833 0.400647 3.639980
-0.037599 0.401135 3.642990
-0.047609 0.401624 3.648790
-0.057619 0.401624 3.646940
-0.067385 0.400891 3.640910
-0.077395 0.400891 3.640910
-0.087405 0.401868 3.650880
-0.097659 0.402600 3.657840
-0.117435 0.402112 3.652970
-0.127201 0.401624 3.647870
-0.136967 0.401135 3.644850
-0.146977 0.401624 3.648790
-0.156987 0.402112 3.652970
-0.166997 0.402112 3.652970
-0.176763 0.401379 3.646940
-0.195807 0.400159 3.634880
-0.227546 0.403821 3.668970
0.441420 0.394055 3.673840
0.431166 0.393811 3.671990
0.421644 0.394299 3.675930
0.411878 0.394543 3.677790
0.401868 0.394543 3.678950
0.391614 0.394299 3.675930
0.380627 0.393078 3.664800
0.370128 0.392834 3.660850
0.360363 0.392834 3.661780
0.350597 0.393078 3.663870
0.339854 0.392102 3.654820
0.328867 0.391125 3.644850
0.318857 0.391125 3.643920
0.309091 0.391125 3.644850
0.299814 0.391858 3.651810
0.290048 0.392346 3.654820
0.280038 0.391858 3.651810
0.250496 0.392346 3.654820
0.231452 0.394055 3.670830
0.221442 0.393811 3.667810
0.210944 0.393078 3.661780
0.200934 0.392834 3.659930
0.191168 0.393078 3.661780
0.181402 0.393567 3.664800
0.171392 0.393567 3.664800
0.161138 0.392834 3.659930
0.151128 0.392834 3.659000
0.141118 0.392346 3.654820
0.131108 0.392590 3.656910
0.120853 0.391614 3.646940
0.110843 0.391369 3.643920
0.090823 0.390881 3.640910
0.081057 0.391125 3.641830
0.071047 0.391125 3.642990
0.061281 0.392102 3.651810
0.051515 0.392102 3.651810
0.041505 0.391858 3.648790
0.031495 0.391614 3.645780
0.021729 0.392346 3.652970
0.011719 0.393078 3.660850
0.001709 0.393078 3.660850
-0.008057 0.392590 3.656910
-0.017823 0.391858 3.649950
-0.027833 0.391369 3.644850
-0.037599 0.391614 3.645780
-0.047609 0.392102 3.650880
-0.057619 0.391858 3.648790
-0.067385 0.391369 3.643920
-0.077395 0.391125 3.642990
-0.087405 0.392346 3.652970
-0.097659 0.393078 3.659930
-0.117435 0.392590 3.655980
-0.127201 0.392102 3.650880
-0.136967 0.391614 3.647870
-0.146977 0.391858 3.649950
-0.157231 0.392346 3.654820
-0.167241 0.392590 3.656910
-0.176763 0.391858 3.650880
-0.196051 0.390393 3.635800
-0.227790 0.394055 3.670830
0.441664 0.384289 3.676860
0.431410 0.384289 3.674770
0.421644 0.384533 3.676860
0.411878 0.384533 3.678950
0.401868 0.384533 3.677790
0.391614 0.384289 3.675930
0.380383 0.383068 3.662940
0.370373 0.383068 3.661780
0.360363 0.383068 3.661780
0.350841 0.383312 3.665960
0.339854 0.382336 3.654820
0.328867 0.381115 3.644850
0.319102 0.381115 3.643920
0.309336 0.381359 3.645780
0.299814 0.382092 3.651810
0.290292 0.382336 3.655980
0.280038 0.382092 3.652970
0.269295 0.380871 3.640910
0.250496 0.382580 3.656910
0.221442 0.383801 3.667810
0.211188 0.383312 3.663870
0.200934 0.383068 3.660850
0.191168 0.383312 3.662940
0.181158 0.383312 3.662940
0.171392 0.383312 3.663870
0.161138 0.383068 3.659930
0.151372 0.383312 3.662940
0.141118 0.382824 3.659000
0.131108 0.382824 3.659000
0.120853 0.381848 3.648790
0.110843 0.381359 3.644850
0.090823 0.381115 3.640910
0.081057 0.381359 3.643920
0.071291 0.381603 3.646940
0.061525 0.382580 3.654820
0.051515 0.382336 3.652970
0.041505 0.381848 3.647870
0.031495 0.381848 3.647870
0.021729 0.382824 3.656910
0.011719 0.383557 3.664800
0.001709 0.383557 3.663870
-0.008057 0.383068 3.660850
-0.017823 0.382336 3.651810
-0.027833 0.381603 3.645780
-0.037599 0.381603 3.645780
-0.047609 0.382336 3.651810
-0.057619 0.382092 3.650880
-0.067385 0.381603 3.645780
-0.077395 0.381359 3.644850
-0.087649 0.382580 3.654820
-0.097659 0.383312 3.662940
-0.117679 0.383068 3.660850
-0.127445 0.382824 3.656910
-0.137211 0.382580 3.654820
-0.147221 0.382580 3.655980
-0.157476 0.382824 3.659000
-0.167241 0.382824 3.657840
-0.176763 0.381848 3.649950
-0.196051 0.380627 3.637890
-0.228034 0.384289 3.673840
0.441664 0.374523 3.676860
0.431410 0.374035 3.673840
0.421644 0.374279 3.675930
0.412122 0.374767 3.679870
0.402112 0.374767 3.680800
0.392102 0.374767 3.678950
0.380627 0.373302 3.664800
0.370373 0.373058 3.661780
0.360363 0.373058 3.662940
0.350841 0.373547 3.666880
0.339854 0.372326 3.654820
0.329112 0.371349 3.645780
0.318857 0.371105 3.642990
0.309336 0.371593 3.646940
0.299814 0.372082 3.652970
0.290292 0.372570 3.656910
0.280038 0.372082 3.651810
0.269295 0.371105 3.641830
0.250496 0.372570 3.655980
0.221442 0.374035 3.668970
0.211188 0.373547 3.664800
0.201178 0.373302 3.662940
0.191168 0.373547 3.663870
0.181402 0.373547 3.664800
0.171148 0.373302 3.662940
0.160894 0.372570 3.655980
0.151128 0.372814 3.657840
0.141118 0.372814 3.656910
0.131108 0.372814 3.657840
0.120853 0.371838 3.647870
0.110843 0.371349 3.642990
0.091067 0.371349 3.642990
0.081057 0.371593 3.645780
0.071291 0.372082 3.649950
0.061525 0.372570 3.653900
0.051515 0.372082 3.648790
0.041505 0.371593 3.644850
0.031495 0.371838 3.647870
0.021729 0.373302 3.660850
0.011719 0.374035 3.668970
0.001709 0.373791 3.665960
-0.008057 0.373058 3.659000
-0.017823 0.372082 3.650880
-0.027833 0.372082 3.648790
-0.037843 0.372082 3.648790
-0.047853 0.372570 3.653900
-0.057619 0.372082 3.650880
-0.067629 0.372082 3.648790
-0.077395 0.371838 3.646940
-0.087649 0.372570 3.655980
-0.097659 0.373302 3.662940
-0.107669 0.373791 3.665960
-0.117679 0.373302 3.660850
-0.127445 0.372814 3.657840
-0.137455 0.372814 3.656910
-0.147465 0.373058 3.659930
-0.157476 0.373058 3.660850
-0.167486 0.373058 3.660850
-0.177007 0.372082 3.650880
-0.186285 0.371105 3.639980
-0.196051 0.370617 3.636960
-0.228034 0.374523 3.673840
0.441908 0.364513 3.678950
0.431654 0.364269 3.675930
0.422132 0.364757 3.679870
0.412610 0.365246 3.684980
0.402844 0.365490 3.685900
0.392346 0.365001 3.681960
0.380627 0.363292 3.664800
0.370128 0.362804 3.659930
0.360118 0.362804 3.659930
0.350841 0.363292 3.664800
0.339854 0.362560 3.655980
0.329112 0.361583 3.646940
0.318857 0.361339 3.642990
0.309580 0.362072 3.649950
0.300058 0.362560 3.654820
0.290536 0.362804 3.659000
0.280038 0.362316 3.652970
0.269539 0.361583 3.645780
0.250740 0.362804 3.657840
0.221686 0.364269 3.672910
0.211432 0.364025 3.668970
0.201422 0.363781 3.666880
0.191412 0.364025 3.668970
0.181402 0.364025 3.668970
0.171392 0.363781 3.666880
0.161138 0.362804 3.656910
0.151128 0.362804 3.657840
0.141118 0.362804 3.656910
0.131352 0.363048 3.659000
0.120853 0.361827 3.647870
0.110843 0.361339 3.641830
0.091067 0.361339 3.640910
0.081057 0.361827 3.645780
0.071291 0.362560 3.652970
0.061525 0.362804 3.656910
0.051515 0.362316 3.650880
0.041505 0.361583 3.644850
0.031495 0.362072 3.647870
0.021729 0.363292 3.660850
0.011719 0.364025 3.667810
0.001709 0.363536 3.663870
-0.008057 0.363048 3.657840
-0.017823 0.362316 3.651810
-0.027833 0.362316 3.651810
-0.037843 0.362560 3.652970
-0.047853 0.362560 3.653900
-0.057619 0.362316 3.650880
-0.067629 0.362072 3.649950
-0.077395 0.362072 3.647870
-0.087649 0.362804 3.656910
-0.097659 0.363536 3.662940
-0.107913 0.363781 3.666880
-0.117679 0.363292 3.661780
-0.127445 0.363048 3.659000
-0.137455 0.362804 3.656910
-0.147465 0.363292 3.660850
-0.157476 0.363292 3.660850
-0.167241 0.363048 3.659000
-0.176763 0.362072 3.648790
-0.186285 0.360851 3.637890
-0.196051 0.360851 3.636960
-0.228034 0.364513 3.673840
0.442396 0.354991 3.682890
0.431898 0.354503 3.677790
0.422132 0.354747 3.680800
0.412854 0.355480 3.685900
0.403088 0.355724 3.688920
0.392590 0.355235 3.684980
0.381115 0.353771 3.668970
0.370128 0.353038 3.660850
0.360363 0.353038 3.660850
0.350841 0.353526 3.665960
0.340098 0.352794 3.657840
0.329356 0.351817 3.648790
0.319102 0.351573 3.645780
0.309824 0.352062 3.650880
0.300302 0.352794 3.657840
0.290780 0.353038 3.660850
0.280282 0.352550 3.653900
0.269539 0.351573 3.643920
0.250740 0.353282 3.660850
0.221931 0.354747 3.675930
0.211676 0.354259 3.671990
0.201422 0.354015 3.668970
0.191656 0.354259 3.670830
0.181890 0.354503 3.673840
0.171636 0.354259 3.671990
0.161138 0.353282 3.660850
0.151128 0.353038 3.657840
0.141118 0.352794 3.655980
0.131108 0.353038 3.657840
0.120853 0.352062 3.648790
0.110843 0.351573 3.641830
0.091067 0.351329 3.640910
0.081057 0.351817 3.645780
0.071291 0.352550 3.651810
0.061525 0.352794 3.655980
0.051515 0.352306 3.650880
0.041505 0.352062 3.646940
0.031495 0.352306 3.650880
0.021729 0.353526 3.661780
0.011719 0.354259 3.670830
0.001709 0.354015 3.667810
-0.008057 0.353526 3.662940
-0.017823 0.352794 3.655980
-0.027833 0.352550 3.653900
-0.037843 0.352550 3.652970
-0.047853 0.352550 3.653900
-0.057619 0.352306 3.650880
-0.067629 0.352306 3.650880
-0.077395 0.352062 3.647870
-0.087649 0.352794 3.656910
-0.097659 0.353282 3.660850
-0.107913 0.354015 3.667810
-0.117679 0.353526 3.663870
-0.127689 0.353526 3.662940
-0.137455 0.353038 3.657840
-0.147465 0.353282 3.660850
-0.157476 0.353282 3.660850
-0.167486 0.353282 3.661780
-0.177007 0.352550 3.652970
-0.186285 0.351329 3.640910
-0.228034 0.354503 3.674770
0.453871 0.345958 3.693790
0.442885 0.345470 3.686830
0.432386 0.344981 3.682890
0.422376 0.344981 3.682890
0.413099 0.345714 3.688920
0.403333 0.345714 3.689850
0.392834 0.345470 3.686830
0.381115 0.343760 3.668970
0.370373 0.343028 3.660850
0.360118 0.343028 3.659930
0.350841 0.343760 3.666880
0.340342 0.343028 3.660850
0.329600 0.342296 3.651810
0.319590 0.342051 3.649950
0.309824 0.342296 3.651810
0.300546 0.343028 3.659930
0.290780 0.343272 3.661780
0.280282 0.342784 3.655980
0.269539 0.341807 3.644850
0.250984 0.343516 3.663870
0.222175 0.345225 3.681960
0.211921 0.344981 3.677790
0.201910 0.344493 3.674770
0.191900 0.344737 3.675930
0.181890 0.344981 3.677790
0.171880 0.344981 3.677790
0.161382 0.343760 3.666880
0.151372 0.343516 3.663870
0.141118 0.343028 3.659000
0.131352 0.343272 3.659930
0.121097 0.342540 3.652970
0.110843 0.341807 3.645780
0.091067 0.341563 3.640910
0.081057 0.342051 3.645780
0.071291 0.342540 3.651810
0.061525 0.343028 3.656910
0.051515 0.342784 3.653900
0.041505 0.342540 3.650880
0.031495 0.342784 3.653900
0.021729 0.343516 3.661780
0.011719 0.344249 3.669900
0.001709 0.344005 3.668970
-0.008057 0.344005 3.666880
-0.017823 0.343028 3.657840
-0.027833 0.342540 3.652970
-0.037843 0.342540 3.651810
-0.047853 0.342540 3.652970
-0.057619 0.342296 3.649950
-0.067629 0.342296 3.648790
-0.077395 0.342051 3.647870
-0.087649 0.343028 3.656910
-0.097659 0.343516 3.662940
-0.107913 0.344005 3.668970
-0.117924 0.344005 3.666880
-0.127689 0.343516 3.663870
-0.137455 0.343028 3.659000
-0.147465 0.343272 3.659930
-0.157476 0.343516 3.662940
-0.167730 0.343760 3.664800
-0.177252 0.343028 3.656910
-0.186529 0.341807 3.644850
-0.196295 0.341319 3.639980
-0.228523 0.345225 3.680800
0.454604 0.336436 3.699820
0.443861 0.335948 3.693790
0.433119 0.335459 3.688920
0.422620 0.335215 3.684980
0.413099 0.335459 3.687990
0.403088 0.335459 3.687990
0.392834 0.335459 3.685900
0.381359 0.333995 3.670830
0.370373 0.333262 3.662940
0.360607 0.333262 3.662940
0.351085 0.333995 3.668970
0.340831 0.333506 3.664800
0.329844 0.332530 3.654820
0.319834 0.332286 3.651810
0.309824 0.332286 3.650880
0.300546 0.333018 3.659000
0.290536 0.333018 3.659930
0.280282 0.332774 3.655980
0.269539 0.331797 3.644850
0.250984 0.333506 3.662940
0.241951 0.334727 3.677790
0.212165 0.334971 3.679870
0.201910 0.334971 3.677790
0.191900 0.334727 3.676860
0.182134 0.334971 3.678950
0.171880 0.334727 3.676860
0.161382 0.333995 3.666880
0.151372 0.333750 3.663870
0.141362 0.333262 3.659930
0.131352 0.333506 3.661780
0.121097 0.332530 3.652970
0.110843 0.332041 3.645780
0.091067 0.331553 3.641830
0.081057 0.331797 3.643920
0.071291 0.332286 3.648790
0.061525 0.332774 3.653900
0.051515 0.332774 3.653900
0.041505 0.332530 3.651810
0.031495 0.333018 3.655980
0.021729 0.333750 3.664800
0.011719 0.334483 3.671990
0.001709 0.334239 3.670830
-0.008057 0.333995 3.667810
-0.017823 0.333018 3.656910
-0.027833 0.332530 3.650880
-0.037843 0.332286 3.649950
-0.047853 0.332774 3.653900
-0.057619 0.332530 3.651810
-0.067629 0.332286 3.649950
-0.077395 0.332286 3.648790
-0.087649 0.333018 3.657840
-0.097903 0.333750 3.665960
-0.107913 0.333995 3.668970
-0.117924 0.333995 3.667810
-0.127689 0.333750 3.663870
-0.137455 0.333262 3.659930
-0.147465 0.333506 3.661780
-0.157720 0.333750 3.664800
-0.167730 0.333995 3.667810
-0.177252 0.333018 3.657840
-0.186773 0.332041 3.646940
-0.196295 0.331309 3.639980
-0.228767 0.335459 3.683820
0.454848 0.326670 3.702840
0.444349 0.326426 3.698890
0.433607 0.325938 3.691930
0.422864 0.325449 3.686830
0.413099 0.325449 3.687990
0.403088 0.325694 3.688920
0.393078 0.325449 3.687990
0.381603 0.324229 3.672910
0.370617 0.323496 3.663870
0.360607 0.323252 3.662940
0.351573 0.324229 3.671990
0.340831 0.323740 3.665960
0.330088 0.322764 3.655980
0.319590 0.322275 3.649950
0.309824 0.322520 3.652970
0.300546 0.323252 3.659930
0.290780 0.323252 3.661780
0.280526 0.323008 3.657840
0.269784 0.322275 3.647870
0.250984 0.323252 3.660850
0.241951 0.324717 3.675930
0.212409 0.325205 3.682890
0.202155 0.324961 3.679870
0.192145 0.324961 3.678950
0.182134 0.324961 3.679870
0.171880 0.324717 3.675930
0.161382 0.323740 3.665960
0.151372 0.323496 3.660850
0.141118 0.323252 3.659000
0.131352 0.323252 3.659930
0.121097 0.322520 3.651810
0.110843 0.322031 3.645780
0.091067 0.321787 3.642990
0.081057 0.322031 3.644850
0.071291 0.322275 3.647870
0.061525 0.322764 3.653900
0.051515 0.322764 3.652970
0.041505 0.322764 3.651810
0.031495 0.323008 3.654820
0.021729 0.323985 3.665960
0.011719 0.324229 3.670830
0.001709 0.324229 3.669900
-0.008057 0.323985 3.666880
-0.017823 0.323252 3.659000
-0.027833 0.322764 3.653900
-0.037843 0.323008 3.654820
-0.047853 0.323252 3.657840
-0.057619 0.323008 3.654820
-0.067629 0.322275 3.647870
-0.077395 0.322275 3.647870
-0.087649 0.323252 3.659000
-0.097903 0.324229 3.668970
-0.107913 0.324229 3.670830
-0.117924 0.323985 3.667810
-0.127689 0.323496 3.662940
-0.137455 0.323252 3.659930
-0.147465 0.323496 3.661780
-0.157720 0.323740 3.664800
-0.167730 0.323985 3.666880
-0.177252 0.323008 3.657840
-0.186529 0.322031 3.645780
-0.196295 0.321543 3.640910
-0.228767 0.325449 3.684980
0.455336 0.316904 3.704920
0.444838 0.316660 3.702840
0.434339 0.316416 3.697960
0.423597 0.315928 3.692860
0.413587 0.315928 3.691930
0.403088 0.315683 3.688920
0.392834 0.315439 3.685900
0.381603 0.314219 3.672910
0.370617 0.313486 3.662940
0.360851 0.313486 3.664800
0.351573 0.314463 3.673840
0.341319 0.313974 3.669900
0.330332 0.313242 3.659930
0.319834 0.312510 3.652970
0.310312 0.312998 3.656910
0.300790 0.313486 3.661780
0.291025 0.313730 3.665960
0.280526 0.313242 3.659000
0.269784 0.312265 3.647870
0.250984 0.313486 3.662940
0.241951 0.314951 3.677790
0.212409 0.315439 3.683820
0.202399 0.315195 3.682890
0.192389 0.315195 3.682890
0.182134 0.315195 3.682890
0.171880 0.314707 3.675930
0.161382 0.313730 3.662940
0.151128 0.313242 3.657840
0.141118 0.312998 3.655980
0.131352 0.313242 3.657840
0.121097 0.312510 3.649950
0.110843 0.312265 3.645780
0.091067 0.312265 3.645780
0.081301 0.312510 3.648790
0.071291 0.312754 3.651810
0.061525 0.312998 3.655980
0.051515 0.312754 3.652970
0.041505 0.312510 3.649950
0.031495 0.312754 3.652970
0.021729 0.313730 3.663870
0.011719 0.314707 3.673840
0.001709 0.314707 3.673840
-0.008057 0.314463 3.671990
-0.018067 0.313486 3.661780
-0.027833 0.313242 3.656910
-0.037843 0.313242 3.657840
-0.047853 0.313486 3.661780
-0.057863 0.313242 3.657840
-0.067629 0.312510 3.649950
-0.077395 0.312265 3.647870
-0.087649 0.313242 3.659000
-0.097903 0.314219 3.669900
-0.107913 0.314463 3.672910
-0.117924 0.313974 3.667810
-0.127689 0.313730 3.663870
-0.137700 0.313486 3.661780
-0.147710 0.313730 3.664800
-0.157720 0.313974 3.667810
-0.167730 0.314219 3.668970
-0.177496 0.313486 3.660850
-0.186773 0.312510 3.648790
0.455092 0.306650 3.703990
0.444594 0.306406 3.700980
0.434339 0.306162 3.697960
0.423841 0.305918 3.694950
0.413831 0.305918 3.693790
0.403333 0.305673 3.690770
0.393078 0.305429 3.686830
0.381359 0.304209 3.671990
0.370373 0.303476 3.661780
0.360607 0.303476 3.663870
0.351573 0.304453 3.673840
0.341319 0.304209 3.670830
0.330576 0.303232 3.660850
0.320078 0.302744 3.654820
0.310556 0.303232 3.659000
0.301035 0.303720 3.665960
0.291513 0.304209 3.669900
0.280770 0.303232 3.659930
0.269784 0.302255 3.645780
0.250984 0.303720 3.663870
0.242195 0.304941 3.679870
0.212409 0.305429 3.685900
0.202399 0.305429 3.683820
0.192389 0.305429 3.685900
0.182379 0.305429 3.684980
0.172124 0.304941 3.678950
0.161382 0.303720 3.664800
0.151128 0.303476 3.659930
0.141118 0.303232 3.656910
0.131352 0.303476 3.659930
0.121097 0.302744 3.650880
0.110843 0.302255 3.645780
0.091067 0.302255 3.645780
0.081301 0.302744 3.650880
0.071291 0.302744 3.652970
0.061525 0.303232 3.655980
0.051515 0.302988 3.652970
0.041505 0.302744 3.650880
0.031495 0.303232 3.655980
0.021729 0.303964 3.665960
0.011719 0.304941 3.676860
0.001709 0.304941 3.678950
-0.008057 0.304941 3.676860
-0.018067 0.303964 3.666880
-0.027833 0.303476 3.659000
-0.037843 0.303476 3.659930
-0.047853 0.303720 3.662940
-0.057863 0.303232 3.657840
-0.087649 0.303476 3.659000
-0.097903 0.304453 3.670830
-0.108158 0.304941 3.676860
-0.117924 0.304453 3.672910
-0.127934 0.304209 3.667810
-0.137700 0.303720 3.663870
-0.147710 0.303964 3.666880
-0.157964 0.304209 3.669900
-0.167974 0.304209 3.669900
-0.177496 0.303720 3.662940
-0.186773 0.302499 3.648790
0.455336 0.296884 3.705850
0.445082 0.296640 3.702840
0.434828 0.296640 3.701910
0.424329 0.296152 3.697960
0.414319 0.296152 3.697960
0.403821 0.295907 3.694950
0.393078 0.295419 3.687990
0.381359 0.294198 3.670830
0.370128 0.293222 3.659930
0.360607 0.293466 3.662940
0.351573 0.294198 3.672910
0.341563 0.294198 3.671990
0.330821 0.293466 3.662940
0.320322 0.293222 3.657840
0.310556 0.293222 3.659930
0.301035 0.293710 3.664800
0.291269 0.293954 3.667810
0.280526 0.293222 3.656910
0.269539 0.292245 3.644850
0.251228 0.293710 3.664800
0.242195 0.295175 3.680800
0.212653 0.295663 3.688920
0.202643 0.295663 3.686830
0.192633 0.295663 3.687990
0.182379 0.295419 3.685900
0.172124 0.295175 3.680800
0.161626 0.294198 3.667810
0.151372 0.293710 3.661780
0.141362 0.293466 3.660850
0.131352 0.293710 3.663870
0.121097 0.292978 3.654820
0.111087 0.292489 3.646940
0.091067 0.292245 3.644850
0.081301 0.292489 3.648790
0.071291 0.292734 3.651810
0.061525 0.292978 3.654820
0.051515 0.293222 3.655980
0.041505 0.292978 3.652970
0.031739 0.293466 3.659000
0.021729 0.293954 3.666880
0.011719 0.294931 3.678950
0.001709 0.295175 3.680800
-0.008057 0.294931 3.678950
-0.018067 0.294198 3.667810
-0.027833 0.293466 3.659000
-0.037843 0.293466 3.660850
-0.057863 0.293222 3.656910
-0.087649 0.293466 3.659930
-0.097903 0.294443 3.670830
-0.108158 0.294931 3.678950
-0.118168 0.294687 3.675930
-0.127934 0.294198 3.669900
-0.137700 0.293954 3.664800
-0.147710 0.294198 3.667810
-0.157964 0.294443 3.670830
-0.167974 0.294198 3.669900
-0.177496 0.293710 3.662940
-0.186773 0.292489 3.648790
0.455580 0.286874 3.707940
0.445082 0.286630 3.702840
0.434584 0.286386 3.699820
0.424085 0.286142 3.696800
0.414075 0.286142 3.696800
0.404065 0.286142 3.695880
0.393323 0.285653 3.689850
0.381603 0.284188 3.672910
0.370617 0.283456 3.662940
0.360851 0.283700 3.664800
0.351573 0.284433 3.672910
0.341319 0.284188 3.670830
0.330821 0.283700 3.663870
0.320322 0.283212 3.657840
0.310312 0.283212 3.657840
0.301035 0.283700 3.663870
0.291269 0.283944 3.666880
0.280526 0.283212 3.656910
0.269539 0.282235 3.643920
0.251228 0.283700 3.663870
0.242195 0.285165 3.680800
0.212653 0.285897 3.689850
0.202643 0.285653 3.688920
0.192389 0.285653 3.686830
0.182379 0.285653 3.686830
0.172124 0.285165 3.681960
0.161626 0.284188 3.669900
0.151372 0.283944 3.664800
0.141362 0.283700 3.663870
0.131596 0.284188 3.667810
0.121342 0.283456 3.657840
0.111087 0.282479 3.647870
0.091067 0.282235 3.642990
0.081301 0.282479 3.646940
0.071291 0.282968 3.651810
0.061525 0.283212 3.654820
0.051515 0.283212 3.655980
0.041505 0.283212 3.654820
0.031739 0.283700 3.662940
0.021729 0.284433 3.670830
0.011719 0.285165 3.680800
0.001709 0.285165 3.680800
-0.008057 0.284921 3.678950
-0.018067 0.284188 3.668970
-0.027833 0.283456 3.659930
-0.037843 0.283700 3.660850
-0.047853 0.283944 3.663870
-0.057863 0.283456 3.659000
-0.087649 0.283456 3.657840
-0.097903 0.284433 3.671990
-0.108158 0.285165 3.679870
-0.118168 0.284921 3.676860
-0.127934 0.284433 3.671990
-0.137700 0.283944 3.666880
-0.147954 0.284188 3.667810
-0.157964 0.284188 3.668970
-0.167730 0.284188 3.668970
-0.177496 0.283456 3.660850
-0.186773 0.282479 3.647870
0.456313 0.277352 3.713970
0.445570 0.276864 3.707940
0.435072 0.276620 3.703990
0.424574 0.276376 3.699820
0.414563 0.276376 3.699820
0.404309 0.276131 3.697960
0.393567 0.275643 3.690770
0.381848 0.274422 3.674770
0.370861 0.273934 3.666880
0.361095 0.273934 3.667810
0.352062 0.274667 3.676860
0.341807 0.274422 3.673840
0.331065 0.273934 3.665960
0.320322 0.273202 3.657840
0.310556 0.273446 3.659000
0.300790 0.273690 3.661780
0.291025 0.273690 3.662940
0.280282 0.272958 3.653900
0.269539 0.272225 3.642990
0.251228 0.273934 3.664800
0.242439 0.275155 3.682890
0.212897 0.275887 3.692860
0.202887 0.275887 3.691930
0.192633 0.275643 3.687990
0.182623 0.275643 3.688920
0.172369 0.275155 3.682890
0.161626 0.274422 3.671990
0.151372 0.273934 3.663870
0.141362 0.273934 3.663870
0.131596 0.274178 3.666880
0.121342 0.273446 3.659930
0.111087 0.272958 3.650880
0.091067 0.272469 3.643920
0.081301 0.272713 3.647870
0.071291 0.273202 3.653900
0.061525 0.273202 3.655980
0.051515 0.273202 3.655980
0.041505 0.272958 3.652970
0.031739 0.273690 3.661780
0.021729 0.274422 3.671990
0.011719 0.275155 3.680800
0.001709 0.275155 3.680800
-0.008057 0.274911 3.678950
-0.018067 0.274422 3.670830
-0.027833 0.273690 3.662940
-0.037843 0.273934 3.663870
-0.047853 0.273934 3.665960
-0.057863 0.273690 3.659930
-0.087649 0.273690 3.660850
-0.098147 0.274667 3.673840
-0.108158 0.275155 3.680800
-0.118168 0.274911 3.677790
-0.127934 0.274422 3.672910
-0.137944 0.274178 3.667810
-0.147954 0.274178 3.668970
-0.157964 0.274178 3.669900
-0.167974 0.274422 3.670830
-0.186773 0.272713 3.648790
0.435316 0.266610 3.705850
0.424574 0.266121 3.699820
0.414319 0.266121 3.698890
0.404065 0.266121 3.696800
0.393323 0.265633 3.689850
0.381848 0.264412 3.674770
0.371105 0.263924 3.668970
0.361339 0.264168 3.670830
0.352306 0.264901 3.679870
0.341807 0.264657 3.675930
0.331065 0.263924 3.666880
0.320078 0.263192 3.655980
0.310312 0.263192 3.656910
0.300790 0.263680 3.661780
0.291269 0.263924 3.666880
0.280526 0.263436 3.657840
0.269784 0.262459 3.645780
0.251473 0.264168 3.667810
0.242683 0.265389 3.686830
0.212897 0.265877 3.693790
0.202887 0.266121 3.694950
0.192877 0.265877 3.691930
0.182623 0.265877 3.691930
0.172369 0.265389 3.684980
0.161870 0.264412 3.671990
0.151372 0.263924 3.664800
0.141606 0.263924 3.665960
0.131596 0.264168 3.667810
0.121342 0.263680 3.661780
0.111087 0.263192 3.652970
0.091067 0.262459 3.643920
0.081301 0.262703 3.647870
0.071535 0.263436 3.656910
0.061525 0.263436 3.657840
0.051515 0.263192 3.654820
0.041505 0.262947 3.650880
0.031739 0.263680 3.659930
0.021729 0.264657 3.672910
0.011719 0.265389 3.682890
0.001709 0.265145 3.681960
-0.008057 0.265145 3.679870
-0.018067 0.264657 3.672910
-0.028077 0.264168 3.665960
-0.037843 0.263924 3.664800
-0.047853 0.264168 3.665960
-0.057863 0.263680 3.659930
-0.087649 0.263680 3.660850
-0.098147 0.264657 3.673840
-0.108158 0.264901 3.678950
-0.118168 0.264657 3.675930
-0.128178 0.264657 3.673840
-0.137944 0.264412 3.671990
-0.147954 0.264412 3.671990
-0.167974 0.264412 3.672910
-0.187017 0.262947 3.650880
-0.196295 0.262215 3.640910
0.424818 0.256355 3.701910
0.414319 0.256111 3.697960
0.404065 0.255867 3.695880
0.393567 0.255623 3.691930
0.381848 0.254646 3.675930
0.371349 0.254158 3.669900
0.361583 0.254402 3.671990
0.352306 0.254891 3.680800
0.342051 0.254646 3.676860
0.331309 0.254158 3.667810
0.320322 0.253426 3.657840
0.310312 0.253426 3.657840
0.301035 0.253914 3.664800
0.291513 0.254158 3.669900
0.280770 0.253670 3.660850
0.269784 0.252693 3.647870
0.251473 0.254158 3.668970
0.242683 0.255623 3.687990
0.213141 0.256111 3.695880
0.202887 0.256111 3.694950
0.192877 0.255867 3.692860
0.182867 0.255867 3.692860
0.172613 0.255623 3.687990
0.161870 0.254646 3.673840
0.151372 0.253914 3.663870
0.141606 0.254158 3.666880
0.131596 0.254158 3.667810
0.121342 0.253670 3.661780
0.111087 0.252937 3.649950
0.091067 0.252449 3.641830
0.081301 0.252693 3.645780
0.071535 0.253426 3.654820
0.061525 0.253670 3.659000
0.051515 0.253426 3.654820
0.041505 0.253182 3.651810
0.031739 0.253670 3.659930
0.021729 0.254646 3.674770
0.011719 0.255379 3.683820
-0.008057 0.255135 3.679870
-0.018067 0.254402 3.671990
-0.028077 0.254158 3.666880
-0.037843 0.254158 3.665960
-0.047853 0.254158 3.665960
-0.057863 0.253670 3.659000
-0.087649 0.253670 3.659000
-0.097903 0.254402 3.671990
-0.118168 0.254646 3.675930
-0.128178 0.254646 3.673840
-0.138188 0.254646 3.674770
-0.148198 0.254646 3.675930
-0.168218 0.254646 3.674770
-0.196539 0.252449 3.643920
0.414563 0.246101 3.700980
0.404553 0.246101 3.699820
0.393811 0.245857 3.694950
0.382092 0.244636 3.677790
0.371349 0.244148 3.670830
0.361583 0.244392 3.672910
0.352550 0.245125 3.682890
0.342296 0.244881 3.680800
0.331553 0.244392 3.671990
0.320566 0.243660 3.660850
0.310556 0.243660 3.659930
0.301279 0.244148 3.666880
0.291757 0.244392 3.671990
0.281014 0.243904 3.663870
0.270272 0.243171 3.651810
0.251473 0.244148 3.667810
0.242683 0.245369 3.684980
0.213141 0.246101 3.697960
0.203131 0.246101 3.696800
0.193121 0.246101 3.695880
0.182867 0.246101 3.695880
0.172613 0.245613 3.687990
0.161870 0.244636 3.673840
0.151372 0.243904 3.664800
0.141606 0.244148 3.667810
0.131596 0.244148 3.666880
0.121342 0.243660 3.660850
0.111087 0.242927 3.647870
0.091067 0.242439 3.639980
0.081057 0.242683 3.643920
0.071535 0.243416 3.653900
0.061525 0.243660 3.657840
0.051515 0.243660 3.657840
0.041505 0.243416 3.654820
0.031739 0.243904 3.661780
0.021729 0.244636 3.674770
0.011719 0.245369 3.685900
-0.008057 0.245125 3.682890
-0.018067 0.244636 3.672910
-0.028077 0.244148 3.666880
-0.037843 0.244148 3.664800
-0.047853 0.243904 3.662940
-0.057863 0.243660 3.657840
-0.087649 0.243660 3.657840
-0.097903 0.244392 3.671990
-0.118168 0.244881 3.676860
-0.128178 0.244636 3.674770
-0.138188 0.244881 3.677790
-0.148198 0.244881 3.678950
-0.168218 0.244881 3.678950
-0.196539 0.242683 3.644850
0.415052 0.236335 3.704920
0.404797 0.236335 3.702840
0.394543 0.236091 3.699820
0.382336 0.234870 3.680800
0.371838 0.234382 3.673840
0.361827 0.234382 3.673840
0.352794 0.235115 3.684980
0.342540 0.234870 3.681960
0.331797 0.234382 3.673840
0.321055 0.233894 3.664800
0.311045 0.233894 3.663870
0.301523 0.234138 3.668970
0.291513 0.234382 3.670830
0.281014 0.233650 3.661780
0.270028 0.232917 3.649950
0.251473 0.234138 3.668970
0.242683 0.235359 3.685900
0.213141 0.236091 3.697960
0.203131 0.236091 3.696800
0.193121 0.236091 3.696800
0.183111 0.236091 3.697960
0.172613 0.235603 3.689850
0.161870 0.234626 3.674770
0.151616 0.234138 3.666880
0.141606 0.234382 3.669900
0.131596 0.234382 3.668970
0.121342 0.233650 3.659930
0.111087 0.232917 3.647870
0.091067 0.232429 3.639980
0.081301 0.232917 3.645780
0.071535 0.233406 3.653900
0.061525 0.233650 3.657840
0.051515 0.233894 3.660850
0.041505 0.233650 3.656910
0.031739 0.234138 3.664800
0.021729 0.234870 3.676860
0.011719 0.235603 3.687990
-0.008057 0.235359 3.683820
-0.018067 0.234626 3.673840
-0.028077 0.234138 3.666880
-0.037843 0.234138 3.664800
-0.047853 0.234138 3.664800
-0.057863 0.233650 3.659000
-0.087649 0.233650 3.657840
-0.097903 0.234382 3.671990
-0.118168 0.234870 3.677790
-0.128178 0.234626 3.675930
-0.138188 0.234870 3.677790
-0.148442 0.235115 3.680800
-0.168462 0.235115 3.682890
-0.196539 0.232673 3.645780
0.416028 0.226814 3.711880
0.405286 0.226325 3.706780
0.394543 0.226081 3.700980
0.382580 0.224860 3.682890
0.371838 0.224616 3.674770
0.362072 0.224616 3.676860
0.353038 0.225349 3.686830
0.342784 0.225105 3.683820
0.332041 0.224616 3.675930
0.321055 0.223884 3.664800
0.311045 0.223884 3.664800
0.301523 0.224372 3.669900
0.291513 0.224372 3.670830
0.280770 0.223640 3.659930
0.269784 0.222907 3.646940
0.251717 0.224372 3.670830
0.242683 0.225349 3.686830
0.213141 0.226081 3.697960
0.203131 0.225837 3.695880
0.193121 0.226081 3.698890
0.183111 0.226081 3.698890
0.172613 0.225593 3.690770
0.161870 0.224616 3.673840
0.151616 0.224372 3.668970
0.141850 0.224372 3.670830
0.131840 0.224372 3.671990
0.121586 0.223884 3.662940
0.111087 0.223151 3.651810
0.081301 0.223151 3.648790
0.071535 0.223640 3.656910
0.061525 0.223640 3.659000
0.051515 0.223884 3.660850
0.041505 0.223640 3.656910
0.031739 0.224128 3.665960
0.021729 0.224860 3.675930
0.011719 0.225593 3.687990
-0.008057 0.225349 3.683820
-0.018067 0.224616 3.674770
-0.028077 0.224372 3.670830
-0.038087 0.224372 3.668970
-0.047853 0.224372 3.667810
-0.057863 0.223640 3.657840
-0.087649 0.223884 3.659930
-0.098147 0.224616 3.674770
-0.118412 0.225105 3.683820
-0.128422 0.225105 3.681960
-0.138432 0.224860 3.679870
-0.148442 0.225105 3.682890
-0.196539 0.222907 3.644850
0.416028 0.216559 3.712810
0.394299 0.215827 3.697960
0.371838 0.214362 3.673840
0.362072 0.214606 3.676860
0.353038 0.215339 3.686830
0.342540 0.215094 3.682890
0.331797 0.214606 3.674770
0.321055 0.213874 3.664800
0.311045 0.214118 3.665960
0.301523 0.214362 3.670830
0.291757 0.214362 3.671990
0.280770 0.213630 3.659930
0.269784 0.212897 3.646940
0.251717 0.214362 3.671990
0.242927 0.215339 3.688920
0.213385 0.216071 3.698890
0.203131 0.216071 3.697960
0.193365 0.216071 3.700980
0.183111 0.216071 3.698890
0.172613 0.215583 3.689850
0.161870 0.214606 3.673840
0.151616 0.214362 3.670830
0.141850 0.214606 3.672910
0.131840 0.214606 3.673840
0.121586 0.213874 3.662940
0.111087 0.213385 3.652970
0.081301 0.213385 3.650880
0.071535 0.213630 3.656910
0.061525 0.213874 3.660850
0.051759 0.213874 3.662940
0.041749 0.213874 3.659930
0.031739 0.214118 3.666880
0.021729 0.214850 3.676860
0.011719 0.215339 3.686830
-0.008057 0.215094 3.681960
-0.018067 0.214606 3.674770
-0.028077 0.214606 3.671990
-0.038087 0.214606 3.672910
-0.048097 0.214606 3.672910
-0.057863 0.213874 3.661780
-0.087649 0.213630 3.656910
-0.098147 0.214606 3.673840
-0.118412 0.215339 3.685900
-0.128422 0.215094 3.683820
-0.138432 0.215094 3.681960
-0.148442 0.215094 3.681960
-0.196783 0.212897 3.646940
0.416517 0.206793 3.717910
0.371349 0.204352 3.670830
0.361827 0.204596 3.674770
0.352794 0.205084 3.684980
0.342540 0.204840 3.681960
0.331797 0.204596 3.673840
0.321055 0.204108 3.665960
0.311289 0.204108 3.667810
0.301767 0.204596 3.673840
0.292001 0.204596 3.674770
0.281014 0.203864 3.661780
0.269784 0.203131 3.646940
0.251473 0.204352 3.668970
0.242683 0.205329 3.686830
0.213385 0.206061 3.700980
0.203375 0.206061 3.698890
0.193121 0.206061 3.698890
0.183111 0.205817 3.696800
0.172613 0.205329 3.687990
0.161626 0.204352 3.670830
0.151616 0.204108 3.666880
0.141850 0.204352 3.670830
0.131840 0.204596 3.672910
0.121342 0.203864 3.661780
0.111332 0.203619 3.653900
0.081301 0.203375 3.649950
0.071535 0.203619 3.655980
0.061525 0.203864 3.660850
0.051759 0.204108 3.663870
0.041749 0.203864 3.660850
0.031739 0.204352 3.666880
0.021729 0.204840 3.677790
0.011719 0.205329 3.687990
-0.008057 0.205084 3.681960
-0.018067 0.204840 3.676860
-0.028077 0.204596 3.672910
-0.038087 0.204596 3.671990
-0.048097 0.204596 3.671990
-0.057863 0.203864 3.661780
-0.087649 0.203619 3.656910
-0.098147 0.204840 3.675930
-0.118656 0.205329 3.687990
-0.128422 0.205329 3.684980
-0.138432 0.205084 3.682890
-0.148442 0.205084 3.683820
0.417249 0.197028 3.722780
0.371105 0.194098 3.666880
0.361827 0.194342 3.673840
0.353038 0.195074 3.686830
0.342784 0.195074 3.684980
0.331797 0.194586 3.674770
0.321055 0.194098 3.665960
0.311289 0.194098 3.666880
0.301767 0.194342 3.672910
0.292001 0.194586 3.675930
0.281014 0.194098 3.663870
0.270272 0.193365 3.650880
0.251473 0.194098 3.666880
0.242683 0.195074 3.685900
0.223395 0.196051 3.699820
0.213385 0.196051 3.700980
0.203375 0.196051 3.700980
0.193121 0.196051 3.699820
0.183111 0.195807 3.697960
0.172369 0.195318 3.686830
0.161626 0.194342 3.670830
0.151616 0.194098 3.664800
0.141850 0.194342 3.670830
0.131840 0.194586 3.672910
0.121586 0.194098 3.662940
0.111332 0.193609 3.656910
0.081301 0.193365 3.651810
0.071535 0.193609 3.656910
0.061525 0.194098 3.662940
0.051759 0.194098 3.663870
0.041749 0.194098 3.661780
0.031739 0.194098 3.665960
0.021729 0.194830 3.677790
0.011719 0.195318 3.687990
-0.008057 0.195318 3.684980
-0.018067 0.194830 3.678950
-0.028077 0.194586 3.672910
-0.038087 0.194586 3.670830
-0.048097 0.194586 3.671990
-0.057863 0.194098 3.661780
-0.087649 0.193854 3.660850
-0.098147 0.194830 3.678950
-0.118412 0.195318 3.686830
-0.128422 0.195074 3.683820
-0.138432 0.195074 3.681960
-0.148442 0.195074 3.681960
0.417493 0.187017 3.724870
0.370861 0.184088 3.665960
0.343028 0.185064 3.685900
0.332041 0.184576 3.675930
0.321055 0.184088 3.665960
0.311289 0.184088 3.666880
0.301767 0.184576 3.672910
0.292001 0.184576 3.674770
0.281014 0.184088 3.662940
0.270272 0.183355 3.650880
0.251473 0.184088 3.666880
0.242683 0.185308 3.686830
0.223640 0.186041 3.700980
0.213385 0.186041 3.701910
0.203375 0.186041 3.701910
0.193365 0.185797 3.699820
0.183111 0.185797 3.699820
0.172369 0.185308 3.686830
0.161626 0.184332 3.669900
0.151372 0.184088 3.663870
0.141850 0.184576 3.671990
0.131840 0.184576 3.673840
0.121586 0.184088 3.664800
0.111332 0.183843 3.657840
0.081301 0.183599 3.652970
0.071535 0.183843 3.659930
0.061525 0.184088 3.663870
0.051759 0.184332 3.665960
0.031739 0.184088 3.664800
0.021729 0.184820 3.676860
0.011719 0.185308 3.688920
-0.008057 0.185308 3.688920
-0.018067 0.185064 3.680800
-0.028077 0.184820 3.675930
-0.038087 0.184576 3.671990
-0.048097 0.184576 3.670830
-0.057863 0.183843 3.656910
-0.067629 0.183111 3.643920
-0.087893 0.184088 3.661780
-0.098147 0.184820 3.679870
-0.128422 0.185064 3.684980
-0.138432 0.185064 3.684980
-0.148442 0.185064 3.683820
0.417493 0.177007 3.725800
0.371105 0.174078 3.666880
0.343272 0.175298 3.689850
0.332530 0.174810 3.680800
0.321299 0.174322 3.668970
0.311289 0.174322 3.667810
0.301767 0.174322 3.671990
0.292001 0.174566 3.674770
0.281014 0.173833 3.661780
0.270272 0.173345 3.650880
0.251473 0.174322 3.666880
0.242683 0.175054 3.686830
0.223640 0.175787 3.700980
0.213630 0.175787 3.701910
0.203375 0.175787 3.701910
0.193365 0.175787 3.700980
0.183111 0.175787 3.699820
0.172613 0.175298 3.687990
0.161870 0.174566 3.673840
0.151616 0.174322 3.669900
0.142094 0.174810 3.676860
0.132084 0.174810 3.678950
0.121586 0.174322 3.667810
0.111332 0.173833 3.659000
0.081301 0.173589 3.654820
0.071535 0.173833 3.659930
0.061525 0.174078 3.663870
0.051759 0.174078 3.663870
0.041505 0.173833 3.657840
0.031739 0.174078 3.662940
0.011719 0.175298 3.689850
-0.008057 0.175298 3.688920
-0.018067 0.175054 3.682890
-0.028077 0.174810 3.677790
-0.038087 0.174810 3.675930
-0.048097 0.174566 3.672910
-0.057863 0.173833 3.659000
-0.067629 0.173101 3.643920
-0.087893 0.174078 3.662940
-0.098392 0.175054 3.682890
-0.118656 0.175298 3.689850
-0.128666 0.175298 3.689850
-0.138676 0.175298 3.688920
-0.148686 0.175054 3.685900
0.417493 0.166753 3.725800
0.371349 0.164312 3.669900
0.343028 0.165044 3.686830
0.332530 0.164800 3.680800
0.321787 0.164312 3.671990
0.311777 0.164556 3.672910
0.302011 0.164556 3.676860
0.292245 0.164800 3.677790
0.281259 0.164068 3.664800
0.270272 0.163579 3.650880
0.251717 0.164312 3.669900
0.242927 0.165288 3.689850
0.223640 0.165777 3.701910
0.213630 0.165777 3.701910
0.203375 0.165777 3.701910
0.193365 0.165777 3.700980
0.183111 0.165777 3.699820
0.172613 0.165288 3.688920
0.161870 0.164556 3.672910
0.151616 0.164312 3.668970
0.141850 0.164800 3.675930
0.132084 0.164800 3.676860
0.121586 0.164312 3.665960
0.111332 0.163823 3.655980
0.081301 0.163823 3.654820
0.071535 0.164068 3.659930
0.061525 0.164068 3.661780
0.051515 0.164068 3.661780
0.041505 0.163823 3.656910
0.031739 0.164068 3.661780
-0.008057 0.165532 3.691930
-0.018067 0.165044 3.685900
-0.028077 0.164800 3.679870
-0.038087 0.164800 3.677790
-0.048097 0.164556 3.673840
-0.057863 0.164068 3.660850
-0.067629 0.163335 3.646940
-0.087893 0.164068 3.660850
-0.098392 0.164800 3.680800
-0.118656 0.165532 3.692860
