-1.183390 0.749290 1.931970
-1.185090 0.747093 1.924780
-1.184610 0.743431 1.914800
-1.188020 0.742210 1.910860
-1.189000 0.739525 1.902980
-1.192180 0.738304 1.898800
-1.190710 0.730735 1.877930
-1.186800 0.725364 1.862850
-1.185090 0.720969 1.850790
-1.189490 0.720725 1.848930
-1.197300 0.722190 1.851950
-1.196570 0.718772 1.841980
-1.191200 0.712424 1.824810
-1.187050 0.707053 1.809970
-1.189490 0.705344 1.804860
-1.191200 0.703635 1.798830
-1.190950 0.700461 1.789790
-1.191930 0.698019 1.782830
-1.184360 0.765404 1.992970
-1.186320 0.762963 1.985780
-1.183140 0.757591 1.970930
-1.185580 0.755394 1.964900
-1.186560 0.752708 1.956790
-1.185830 0.748802 1.945880
-1.186070 0.745628 1.936840
-1.185830 0.742210 1.926870
-1.185090 0.738304 1.915960
-1.185830 0.735618 1.907850
-1.189250 0.734397 1.903900
-1.191200 0.732444 1.897870
-1.190950 0.725852 1.878850
-1.188510 0.721213 1.865860
-1.187290 0.717307 1.854960
-1.191690 0.716819 1.852880
-1.196810 0.716819 1.851950
-1.196080 0.713401 1.841980
-1.190220 0.706809 1.823880
-1.188020 0.702414 1.811820
-1.188510 0.699728 1.803940
-1.190950 0.698264 1.798830
-1.191200 0.695578 1.790950
-1.190950 0.692404 1.781900
-1.187050 0.761498 1.997840
-1.187050 0.758080 1.987870
-1.185830 0.753685 1.975800
-1.183870 0.749046 1.962820
-1.184360 0.746117 1.953770
-1.186800 0.744163 1.947970
-1.187050 0.740989 1.938930
-1.186320 0.737083 1.927790
-1.185830 0.733665 1.917820
-1.188020 0.731712 1.911790
-1.192660 0.731223 1.909930
-1.194130 0.728782 1.902980
-1.196080 0.726829 1.896940
-1.193150 0.721946 1.882800
-1.192660 0.718528 1.872820
-1.189490 0.713401 1.858910
-1.192660 0.712180 1.854960
-1.196330 0.711447 1.851950
-1.197790 0.709250 1.844990
-1.193640 0.703879 1.829910
-1.188270 0.697531 1.812980
-1.186800 0.693869 1.801850
-1.189000 0.692160 1.796980
-1.192180 0.691183 1.792800
-1.191930 0.688009 1.783990
-1.183870 0.753929 1.992970
-1.185580 0.751732 1.985780
-1.184850 0.747826 1.974880
-1.184360 0.743919 1.963980
-1.184120 0.740501 1.953770
-1.186320 0.738548 1.947970
-1.187290 0.735862 1.939850
-1.186560 0.731956 1.928950
-1.186070 0.728538 1.918980
-1.188270 0.726585 1.912950
-1.192180 0.725608 1.909930
-1.193150 0.722922 1.901820
-1.195840 0.721458 1.896940
-1.194130 0.717307 1.884880
-1.194620 0.714621 1.877000
-1.189730 0.708518 1.859830
-1.189730 0.705344 1.850790
-1.190950 0.703146 1.843830
-1.194620 0.702414 1.840820
-1.191440 0.697287 1.826900
-1.187780 0.692404 1.812980
-1.187050 0.688986 1.802780
-1.189490 0.687521 1.797910
-1.191690 0.685812 1.792800
-1.191440 0.682882 1.783990
-1.184610 0.752464 2.004800
-1.184610 0.749046 1.994820
-1.185830 0.746361 1.986940
-1.185830 0.742943 1.976960
-1.185830 0.739525 1.966990
-1.183870 0.734886 1.953770
-1.185340 0.732444 1.946810
-1.186320 0.729759 1.938930
-1.185580 0.726096 1.927790
-1.186560 0.723411 1.919910
-1.188510 0.721458 1.913880
-1.193880 0.721458 1.912950
-1.193880 0.718284 1.903900
-1.198030 0.717551 1.900890
-1.197550 0.710959 1.881870
-1.191930 0.704611 1.863780
-1.189980 0.700461 1.851950
-1.190470 0.697775 1.843830
-1.193640 0.696554 1.839890
-1.192910 0.693136 1.829910
-1.188510 0.684835 1.805790
-1.189000 0.682150 1.797910
-1.191440 0.680685 1.792800
-1.191690 0.677999 1.784920
-1.185580 0.747581 2.006890
-1.185580 0.744163 1.996910
-1.184360 0.740013 1.984850
-1.183630 0.736106 1.973950
-1.184360 0.733177 1.964900
-1.185830 0.730735 1.957950
-1.187540 0.728538 1.950990
-1.187290 0.725120 1.940780
-1.185830 0.720969 1.928950
-1.186070 0.717795 1.919910
-1.186320 0.714866 1.910860
-1.189730 0.713645 1.906920
-1.191200 0.711447 1.899960
-1.194370 0.710227 1.895790
-1.196570 0.705344 1.880940
-1.192910 0.699973 1.865860
-1.192180 0.696554 1.855890
-1.190710 0.692892 1.844990
-1.193880 0.691671 1.840820
-1.193880 0.688742 1.831770
-1.181680 0.742943 2.010830
-1.184610 0.741478 2.005960
-1.185830 0.738792 1.997840
-1.184610 0.734642 1.985780
-1.183390 0.730491 1.973950
-1.183870 0.727561 1.964900
-1.186320 0.725608 1.958870
-1.188510 0.723655 1.952840
-1.188760 0.720481 1.943800
-1.188020 0.716819 1.932900
-1.187050 0.713157 1.921990
-1.187290 0.709983 1.912950
-1.189490 0.708029 1.906920
-1.192660 0.707053 1.902980
-1.194860 0.705100 1.896940
-1.196810 0.703146 1.890910
-1.197550 0.700461 1.882800
-1.194370 0.695822 1.868880
-1.194370 0.692648 1.859830
-1.191200 0.687765 1.845920
-1.194130 0.686789 1.841980
-1.182410 0.738060 2.012920
-1.184360 0.735862 2.005960
-1.185090 0.732688 1.996910
-1.182650 0.727805 1.983000
-1.181920 0.724143 1.971860
-1.182410 0.721213 1.962820
-1.185830 0.719993 1.958870
-1.187540 0.717795 1.951920
-1.189730 0.715842 1.945880
-1.191930 0.713889 1.939850
-1.191690 0.710471 1.929880
-1.191200 0.707053 1.919910
-1.192180 0.704611 1.911790
-1.195590 0.703391 1.907850
-1.195100 0.699973 1.897870
-1.197060 0.698264 1.891840
-1.197060 0.695090 1.882800
-1.195840 0.691427 1.871900
-1.192180 0.686300 1.856820
-1.189490 0.681906 1.843830
-1.184120 0.733421 2.015930
-1.184610 0.730491 2.006890
-1.184120 0.726829 1.995980
-1.183630 0.722922 1.984850
-1.183390 0.719748 1.974880
-1.184610 0.717063 1.966990
-1.185090 0.714133 1.957950
-1.186070 0.711447 1.949830
-1.188760 0.709983 1.944960
-1.192910 0.709006 1.941940
-1.193150 0.706076 1.932900
-1.192180 0.702414 1.921990
-1.191200 0.698752 1.910860
-1.194620 0.697531 1.906920
-1.192910 0.693381 1.894860
-1.194860 0.691671 1.888830
-1.193640 0.688009 1.877930
-1.192420 0.684347 1.866790
-1.188510 0.678976 1.851950
-1.188510 0.676046 1.842900
-1.183140 0.727317 2.014770
-1.183870 0.724387 2.005960
-1.184360 0.721458 1.996910
-1.184360 0.718040 1.986940
-1.185090 0.715110 1.977890
-1.186070 0.712424 1.969770
-1.186560 0.709494 1.960960
-1.186320 0.706320 1.950990
-1.188510 0.704367 1.944960
-1.191930 0.703146 1.940780
-1.193400 0.700949 1.933820
-1.191930 0.696799 1.921990
-1.192180 0.693869 1.912950
-1.191690 0.690695 1.902980
-1.189980 0.686544 1.890910
-1.189980 0.683615 1.881870
-1.191440 0.681417 1.874910
-1.193400 0.679708 1.868880
-1.192660 0.676290 1.858910
-1.191930 0.673116 1.848930
-1.182410 0.721213 2.013840
-1.182900 0.718284 2.004800
-1.183630 0.715354 1.995980
-1.185830 0.713645 1.989950
-1.185830 0.710227 1.979980
-1.187050 0.707541 1.971860
-1.186800 0.704367 1.961890
-1.188510 0.702170 1.954930
-1.191200 0.700705 1.949830
-1.191690 0.697775 1.940780
-1.190710 0.694113 1.929880
-1.189730 0.690451 1.918980
-1.188760 0.686789 1.907850
-1.189490 0.684103 1.899960
-1.187050 0.679708 1.886970
-1.189000 0.677999 1.880940
-1.190950 0.676046 1.874910
-1.191200 0.673116 1.865860
-1.192420 0.670919 1.858910
-1.191690 0.667745 1.848930
-1.183140 0.716330 2.015930
-1.183390 0.713157 2.005960
-1.183390 0.709738 1.995980
-1.186320 0.708274 1.990880
-1.188510 0.706320 1.984850
-1.189730 0.703879 1.976960
-1.187780 0.699484 1.963980
-1.188760 0.696799 1.955860
-1.190950 0.695090 1.949830
-1.192660 0.692892 1.942870
-1.191690 0.689230 1.931970
-1.191200 0.686056 1.921990
-1.190950 0.682638 1.911790
-1.189730 0.678976 1.900890
-1.188760 0.675558 1.889990
-1.190710 0.673605 1.883960
-1.195840 0.673605 1.882800
-1.195350 0.670431 1.872820
-1.192660 0.666036 1.859830
-1.183630 0.710959 2.016860
-1.183140 0.707297 2.005960
-1.182410 0.703879 1.994820
-1.187290 0.703391 1.992970
-1.187050 0.699973 1.983000
-1.188270 0.697531 1.974880
-1.185090 0.692404 1.959800
-1.187290 0.690695 1.953770
-1.190220 0.689230 1.948900
-1.191690 0.687033 1.941940
-1.190220 0.683126 1.929880
-1.189730 0.679708 1.919910
-1.191200 0.677511 1.912950
-1.190710 0.674337 1.902980
-1.189730 0.670675 1.891840
-1.192910 0.669698 1.887900
-1.198030 0.669698 1.886970
-1.194860 0.665059 1.872820
-1.182650 0.705100 2.015930
-1.183870 0.702414 2.007810
-1.184610 0.699484 1.999000
-1.188020 0.698508 1.994820
-1.188020 0.695090 1.984850
-1.188020 0.691916 1.974880
-1.184850 0.687033 1.959800
-1.186320 0.684835 1.952840
-1.189250 0.683370 1.947970
-1.191930 0.681906 1.942870
-1.190470 0.677999 1.930810
-1.190710 0.675069 1.921990
-1.191440 0.672628 1.913880
-1.191200 0.669210 1.903900
-1.191930 0.666768 1.895790
-1.196330 0.666280 1.893930
-1.202190 0.666768 1.893930
-1.206820 0.666280 1.891840
-1.184850 0.700705 2.019870
-1.186070 0.698264 2.011990
-1.185580 0.694601 2.000850
-1.186560 0.692160 1.992970
-1.184850 0.687765 1.979980
-1.184120 0.684347 1.968850
-1.184610 0.681417 1.959800
-1.188020 0.680197 1.955860
-1.191440 0.679220 1.951920
-1.192910 0.677023 1.944960
-1.194620 0.666036 1.909930
-1.197790 0.664815 1.905990
-1.202430 0.664571 1.903900
-1.185830 0.695578 2.021960
-1.187540 0.693625 2.014770
-1.186320 0.689718 2.002940
-1.185830 0.686056 1.991810
-1.184610 0.682150 1.979980
-1.183870 0.678732 1.968850
-1.184850 0.676290 1.960960
-1.187050 0.674337 1.954930
-1.190470 0.673360 1.950990
-1.193880 0.672140 1.946810
-1.193640 0.668966 1.936840
-1.192660 0.665548 1.925940
-1.187780 0.691427 2.025900
-1.187290 0.687765 2.014770
-1.186070 0.684103 2.002940
-1.184360 0.679708 1.989950
-1.182410 0.675558 1.976960
-1.183630 0.673116 1.968850
-1.184120 0.670431 1.959800
-1.186800 0.668966 1.954930
-1.189000 0.667013 1.948900
-1.184610 0.683859 2.020800
-1.185340 0.681173 2.011990
-1.185340 0.677999 2.001780
-1.185340 0.674825 1.991810
-1.183390 0.670675 1.978820
-1.183870 0.667989 1.969770
-1.185090 0.678732 2.021960
-1.185580 0.675802 2.012920
-1.186320 0.673116 2.003870
-1.186320 0.669942 1.993900
-1.182650 0.664815 1.977890
-1.184120 0.672628 2.020800
-1.186560 0.670919 2.014770
-1.186560 0.667745 2.004800
-1.186560 0.664571 1.994820
-1.185340 0.660909 1.983000
-1.183870 0.667013 2.020800
-1.187540 0.665792 2.016860
-1.188760 0.663350 2.008970
-1.188270 0.660176 1.997840
-1.188020 0.657002 1.987870
-1.183630 0.661397 2.020800
-1.185580 0.659200 2.013840
-1.187290 0.657247 2.006890
-1.187290 0.654073 1.996910
-1.188510 0.651631 1.988790
-1.181680 0.645039 1.967920
-1.185830 0.657002 2.024980
-1.186560 0.654317 2.015930
-1.187780 0.651875 2.007810
-1.188270 0.649190 1.999000
-1.187540 0.645772 1.987870
-1.180210 0.638936 1.965830
-1.186800 0.651875 2.026830
-1.187540 0.649190 2.017790
-1.186320 0.645527 2.005960
-1.186800 0.642842 1.996910
-1.186070 0.639668 1.985780
-1.180700 0.633808 1.966990
-1.184850 0.645283 2.023820
-1.185580 0.642598 2.014770
-1.184850 0.639424 2.003870
-1.186070 0.636982 1.995980
-1.186070 0.634053 1.985780
-1.179720 0.627949 1.965830
-1.185090 0.642842 2.034950
-1.184120 0.639424 2.022890
-1.184120 0.636250 2.012920
-1.184120 0.633320 2.002940
-1.185340 0.631123 1.994820
-1.184610 0.627949 1.983920
-1.176060 0.620380 1.959800
-1.184360 0.636982 2.033790
-1.183140 0.633320 2.021960
-1.182170 0.629902 2.009900
-1.183870 0.627705 2.002940
-1.185090 0.625507 1.994820
-1.186070 0.623310 1.986940
-1.178260 0.616230 1.963980
-1.184610 0.631611 2.034950
-1.186070 0.629170 2.026830
-1.184850 0.625751 2.014770
-1.186070 0.623554 2.006890
-1.186070 0.620624 1.996910
-1.189490 0.619648 1.992970
-1.183390 0.613544 1.972790
-1.169960 0.603778 1.940780
-1.185580 0.626484 2.036810
-1.185830 0.623554 2.026830
-1.184120 0.619892 2.013840
-1.185340 0.617450 2.005960
-1.187050 0.615497 1.999000
-1.189250 0.614032 1.992970
-1.183630 0.608417 1.973950
-1.170930 0.598895 1.942870
-1.185580 0.620869 2.036810
-1.185580 0.617939 2.026830
-1.185090 0.614765 2.015930
-1.185580 0.612323 2.006890
-1.186800 0.610126 1.999000
-1.187780 0.607685 1.990880
-1.182900 0.602557 1.972790
-1.170200 0.593280 1.941940
-1.185830 0.615497 2.037970
-1.184120 0.611591 2.024980
-1.183140 0.608173 2.012920
-1.184850 0.606464 2.005960
-1.186560 0.604511 1.999000
-1.187540 0.602313 1.990880
-1.180940 0.595965 1.969770
-1.170450 0.588153 1.942870
-1.185580 0.609882 2.037970
-1.184120 0.605976 2.024980
-1.182900 0.602557 2.012920
-1.184120 0.600360 2.004800
-1.187540 0.599384 2.000850
-1.189250 0.597674 1.993900
-1.183630 0.592059 1.974880
-1.171420 0.583270 1.944960
-1.184360 0.603534 2.035880
-1.184360 0.600848 2.025900
-1.183390 0.597430 2.013840
-1.185580 0.595721 2.007810
-1.188510 0.594501 2.002940
-1.191930 0.593524 1.999000
-1.185830 0.587664 1.978820
-1.171910 0.578143 1.945880
-1.183630 0.597674 2.034950
-1.185340 0.595721 2.027990
-1.186560 0.593524 2.019870
-1.186560 0.590838 2.009900
-1.189000 0.589129 2.003870
-1.190710 0.587420 1.996910
-1.185830 0.582293 1.978820
-1.172150 0.573016 1.946810
-1.159950 0.564470 1.916890
-1.182900 0.591571 2.033790
-1.184610 0.589862 2.026830
-1.186320 0.587909 2.019870
-1.187050 0.585467 2.010830
-1.188760 0.583514 2.003870
-1.188760 0.580828 1.993900
-1.183630 0.575945 1.975800
-1.168980 0.566179 1.941940
-1.157260 0.557878 1.912950
-1.183390 0.583514 2.024980
-1.185580 0.582049 2.018950
-1.186320 0.579608 2.009900
-1.187290 0.577410 2.001780
-1.186070 0.574236 1.989950
-1.179970 0.568621 1.969770
-1.162140 0.557634 1.930810
-1.150910 0.549577 1.902980
-1.140170 0.542009 1.875840
-1.183140 0.577899 2.024980
-1.184360 0.575945 2.016860
-1.185340 0.573748 2.008970
-1.186560 0.571551 2.000850
-1.185830 0.568621 1.989950
-1.181430 0.563982 1.972790
-1.161410 0.551775 1.929880
-1.150180 0.543962 1.901820
-1.139440 0.536393 1.874910
-1.183390 0.572527 2.025900
-1.185340 0.570818 2.018950
-1.185340 0.568133 2.008970
-1.185830 0.565691 1.999930
-1.185090 0.562761 1.988790
-1.180210 0.557878 1.970930
-1.166780 0.549089 1.938930
-1.151890 0.539567 1.904830
-1.143590 0.533219 1.881870
-1.183390 0.566912 2.025900
-1.185580 0.565447 2.019870
-1.186320 0.563005 2.010830
-1.186320 0.560564 2.000850
-1.185580 0.557634 1.989950
-1.182900 0.553972 1.975800
-1.170200 0.545427 1.944960
-1.157750 0.537126 1.914800
-1.135290 0.524430 1.868880
-1.182650 0.561052 2.024980
-1.186800 0.560320 2.021960
-1.186800 0.557878 2.011990
-1.186070 0.554949 2.000850
-1.185340 0.552019 1.989950
-1.183390 0.548601 1.976960
-1.174110 0.541765 1.951920
-1.158730 0.532243 1.916890
-1.135290 0.519303 1.868880
-1.182900 0.555681 2.025900
-1.186560 0.554704 2.021960
-1.185830 0.552019 2.010830
-1.184610 0.548845 1.999000
-1.183870 0.545915 1.987870
-1.183870 0.543474 1.977890
-1.177040 0.537858 1.956790
-1.165810 0.530290 1.928950
-1.141150 0.516617 1.878850
-1.184120 0.550798 2.027990
-1.187050 0.549577 2.022890
-1.184610 0.545915 2.008970
-1.184610 0.543229 1.999000
-1.185090 0.541032 1.989950
-1.184850 0.538591 1.979980
-1.174350 0.531266 1.952840
-1.163850 0.524186 1.925940
-1.147010 0.514176 1.888830
-1.184360 0.545427 2.028920
-1.185580 0.543474 2.020800
-1.185090 0.540544 2.009900
-1.184360 0.537858 1.999000
-1.184850 0.535417 1.989950
-1.182170 0.531999 1.975800
-1.170690 0.524186 1.946810
-1.159460 0.516861 1.918980
-1.141390 0.506607 1.879780
-1.183140 0.539079 2.026830
-1.183630 0.536882 2.017790
-1.183140 0.534196 2.006890
-1.183630 0.531999 1.997840
-1.182900 0.529313 1.986940
-1.179720 0.525407 1.971860
-1.170450 0.518815 1.946810
-1.155550 0.510025 1.912950
-1.140660 0.500992 1.878850
-1.182410 0.535905 2.035880
-1.183630 0.533952 2.027990
-1.184120 0.531754 2.018950
-1.185340 0.529801 2.010830
-1.182900 0.526139 1.996910
-1.182170 0.523453 1.985780
-1.178260 0.519303 1.969770
-1.174600 0.515397 1.953770
-1.161410 0.507340 1.922920
-1.144080 0.497330 1.884880
-1.183390 0.530778 2.037970
-1.185090 0.529069 2.030770
-1.186320 0.527116 2.022890
-1.186320 0.524674 2.012920
-1.184360 0.521500 1.999930
-1.183630 0.518815 1.988790
-1.182410 0.515641 1.976960
-1.176790 0.511002 1.957950
-1.164830 0.503433 1.928950
-1.148230 0.494156 1.891840
-1.183870 0.525407 2.038890
-1.186800 0.524186 2.033790
-1.188510 0.522477 2.026830
-1.189730 0.520524 2.018950
-1.187290 0.517106 2.004800
-1.187780 0.514908 1.995980
-1.184610 0.511246 1.980910
-1.178260 0.506363 1.960960
-1.162880 0.497330 1.925940
-1.146760 0.488296 1.889990
-1.183140 0.519547 2.037970
-1.184360 0.517594 2.029850
-1.185340 0.515641 2.021960
-1.187780 0.514176 2.015930
-1.187780 0.511979 2.005960
-1.189490 0.510269 1.999000
-1.188020 0.507340 1.986940
-1.179970 0.501724 1.963980
-1.161660 0.491470 1.923850
-1.144080 0.481948 1.885810
-1.183630 0.511734 2.028920
-1.184120 0.509537 2.019870
-1.186560 0.508316 2.013840
-1.186320 0.505875 2.003870
-1.188510 0.504410 1.997840
-1.186560 0.501236 1.984850
-1.178750 0.495621 1.961890
-1.157750 0.484634 1.917820
-1.137240 0.473891 1.874910
-1.183390 0.506119 2.028920
-1.183390 0.503677 2.018950
-1.185830 0.502457 2.012920
-1.185580 0.500015 2.002940
-1.188510 0.499039 1.997840
-1.186560 0.495865 1.984850
-1.182170 0.491714 1.967920
-1.160190 0.480483 1.921990
-1.139680 0.469741 1.878850
-1.185580 0.499283 2.022890
-1.185580 0.496841 2.012920
-1.184360 0.493912 2.000850
-1.186560 0.492691 1.994820
-1.185090 0.489761 1.983000
-1.178990 0.485122 1.962820
-1.168490 0.478530 1.935910
-1.146280 0.467299 1.889990
-1.183630 0.495132 2.029850
-1.183140 0.492691 2.018950
-1.184360 0.490738 2.010830
-1.184850 0.488784 2.001780
-1.187050 0.487320 1.995980
-1.186320 0.484878 1.984850
-1.179970 0.480239 1.964900
-1.169470 0.473647 1.938000
-1.150180 0.463881 1.896940
-1.183630 0.489517 2.029850
-1.184850 0.487808 2.021960
-1.185830 0.486099 2.013840
-1.186320 0.483902 2.004800
-1.186320 0.481704 1.994820
-1.184850 0.479019 1.983000
-1.175570 0.472915 1.957950
-1.165560 0.466811 1.931970
-1.139190 0.454115 1.878850
-1.181680 0.483169 2.026830
-1.182900 0.481460 2.018950
-1.185830 0.480483 2.013840
-1.187540 0.479019 2.006890
-1.186070 0.476089 1.994820
-1.185340 0.473647 1.983920
-1.176060 0.467788 1.958870
-1.155800 0.457778 1.915960
-1.143830 0.450942 1.886970
-1.181430 0.477798 2.026830
-1.184360 0.476577 2.021960
-1.186800 0.475356 2.015930
-1.187290 0.473403 2.006890
-1.185340 0.470473 1.993900
-1.184120 0.467788 1.981840
-1.173620 0.461440 1.954930
-1.162390 0.455092 1.926870
-1.147500 0.447035 1.892770
-1.181920 0.472427 2.027990
-1.183630 0.470962 2.020800
-1.184850 0.469008 2.012920
-1.186560 0.467544 2.005960
-1.184610 0.464614 1.992970
-1.180940 0.461196 1.976960
-1.174600 0.456557 1.956790
-1.167030 0.451674 1.934980
-1.153360 0.444349 1.902980
-1.182410 0.467055 2.028920
-1.184120 0.465590 2.021960
-1.186560 0.464370 2.015930
-1.187050 0.462416 2.006890
-1.185090 0.459487 1.993900
-1.180700 0.455580 1.976960
-1.175570 0.451674 1.958870
-1.171180 0.447768 1.941940
-1.158730 0.441176 1.911790
-1.182900 0.461684 2.029850
-1.182900 0.459487 2.019870
-1.185090 0.458266 2.013840
-1.185090 0.456069 2.003870
-1.184360 0.453627 1.992970
-1.182410 0.450942 1.979980
-1.179720 0.447768 1.965830
-1.173380 0.443373 1.945880
-1.156770 0.435072 1.908770
-1.180940 0.455336 2.026830
-1.180940 0.453383 2.016860
-1.182650 0.451918 2.009900
-1.184360 0.450453 2.002940
-1.184850 0.448500 1.993900
-1.186560 0.447035 1.986940
-1.181920 0.443373 1.969770
-1.173380 0.438002 1.945880
-1.156040 0.429701 1.907850
-1.182650 0.450453 2.029850
-1.182170 0.448256 2.018950
-1.183140 0.446547 2.010830
-1.184360 0.444838 2.002940
-1.184120 0.442640 1.992970
-1.185090 0.441176 1.984850
-1.181190 0.437757 1.968850
-1.171420 0.432142 1.942870
-1.157020 0.424818 1.909930
-1.183140 0.445082 2.030770
-1.183140 0.443129 2.020800
-1.184850 0.441664 2.013840
-1.186560 0.440199 2.006890
-1.186320 0.438246 1.996910
-1.185580 0.435804 1.985780
-1.179480 0.431654 1.965830
-1.168250 0.425550 1.938000
-1.153360 0.418226 1.903900
-1.184850 0.440199 2.033790
-1.183630 0.437757 2.021960
-1.185340 0.436293 2.014770
-1.185830 0.434584 2.005960
-1.185580 0.432386 1.995980
-1.183140 0.429456 1.981840
-1.176790 0.425306 1.961890
-1.163850 0.418714 1.930810
-1.148960 0.411389 1.896940
-1.184120 0.434339 2.032860
-1.182900 0.431898 2.020800
-1.185830 0.430921 2.015930
-1.185090 0.428724 2.004800
-1.186070 0.427259 1.996910
-1.182900 0.424085 1.981840
-1.176790 0.419935 1.961890
-1.161410 0.412610 1.926870
-1.145050 0.405042 1.890910
-1.182900 0.428480 2.030770
-1.182170 0.426283 2.019870
-1.184610 0.425062 2.013840
-1.183870 0.422864 2.002940
-1.184360 0.421155 1.993900
-1.180940 0.417982 1.978820
-1.178990 0.415296 1.965830
-1.166540 0.409192 1.935910
-1.148720 0.401135 1.896940
-1.182170 0.422620 2.029850
-1.182650 0.420911 2.020800
-1.185090 0.419691 2.014770
-1.183630 0.417249 2.002940
-1.184120 0.415540 1.993900
-1.181430 0.412854 1.979980
-1.177040 0.409436 1.962820
-1.167760 0.404309 1.938000
-1.152870 0.397229 1.903900
-1.183140 0.417493 2.031930
-1.183630 0.415784 2.022890
-1.184850 0.414319 2.014770
-1.183630 0.411878 2.002940
-1.182900 0.409680 1.991810
-1.179720 0.406751 1.976960
-1.172150 0.402356 1.954930
-1.163370 0.397473 1.930810
-1.156290 0.393323 1.909930
-1.146520 0.388195 1.884880
-1.184850 0.412610 2.034950
-1.185340 0.410901 2.025900
-1.184120 0.408460 2.013840
-1.181680 0.405774 1.999930
-1.180940 0.403577 1.988790
-1.178260 0.400891 1.974880
-1.167760 0.395520 1.947970
-1.159700 0.390881 1.924780
-1.153840 0.387219 1.905990
-1.185830 0.407239 2.036810
-1.184610 0.405042 2.024980
-1.184610 0.403088 2.014770
-1.182170 0.400403 2.000850
-1.181430 0.398450 1.989950
-1.178750 0.395764 1.975800
-1.172640 0.391858 1.955860
-1.161900 0.386486 1.928950
-1.151890 0.381359 1.902980
-1.182900 0.400891 2.031930
-1.184120 0.399182 2.023820
-1.185090 0.397717 2.015930
-1.183870 0.395520 2.003870
-1.182410 0.393323 1.991810
-1.179970 0.390637 1.977890
-1.176550 0.387707 1.962820
-1.164340 0.381848 1.932900
-1.154820 0.377209 1.907850
-1.140900 0.370861 1.875840
-1.180940 0.394543 2.028920
-1.183390 0.393567 2.022890
-1.185580 0.392590 2.016860
-1.185580 0.390637 2.006890
-1.184120 0.388440 1.994820
-1.179720 0.385266 1.977890
-1.176550 0.382336 1.962820
-1.166540 0.377453 1.936840
-1.158240 0.373058 1.913880
-1.140660 0.365734 1.875840
-1.180940 0.390881 2.038890
-1.180460 0.388928 2.027990
-1.182170 0.387707 2.020800
-1.184360 0.386486 2.014770
-1.183140 0.384289 2.002940
-1.182410 0.382336 1.991810
-1.177280 0.378918 1.973950
-1.172150 0.375744 1.955860
-1.164590 0.371593 1.933820
-1.158730 0.367931 1.914800
-1.140660 0.360607 1.875840
-1.182650 0.385998 2.041910
-1.180940 0.383557 2.028920
-1.179720 0.381359 2.016860
-1.180700 0.379894 2.008970
-1.181680 0.378430 2.000850
-1.181680 0.376720 1.990880
-1.178500 0.374035 1.975800
-1.172640 0.370373 1.956790
-1.163370 0.365734 1.931970
-1.155060 0.361583 1.908770
-1.143590 0.356456 1.880940
-1.183630 0.380627 2.044000
-1.180700 0.377941 2.028920
-1.178990 0.375744 2.015930
-1.178750 0.373791 2.005960
-1.180460 0.372570 1.999000
-1.181430 0.371349 1.990880
-1.180700 0.369396 1.979980
-1.176310 0.366222 1.962820
-1.165070 0.361095 1.934980
-1.159220 0.357677 1.915960
-1.148230 0.352794 1.888830
-1.183630 0.375011 2.044000
-1.180700 0.372326 2.028920
-1.178750 0.370128 2.015930
-1.178750 0.368419 2.005960
-1.182170 0.367687 2.001780
-1.183870 0.366466 1.994820
-1.185340 0.365246 1.987870
-1.178010 0.361339 1.965830
-1.168490 0.356945 1.940780
-1.162140 0.353282 1.920840
-1.150670 0.348155 1.892770
-1.181680 0.368908 2.040980
-1.179970 0.366710 2.027990
-1.181190 0.365246 2.019870
-1.180940 0.363536 2.009900
-1.182650 0.362316 2.002940
-1.183630 0.361095 1.994820
-1.184120 0.359630 1.985780
-1.181430 0.357189 1.971860
-1.172150 0.352550 1.946810
-1.166300 0.349376 1.927790
-1.147980 0.342296 1.888830
-1.179970 0.362804 2.037970
-1.181190 0.361583 2.029850
-1.182900 0.360363 2.022890
-1.183870 0.358898 2.014770
-1.183870 0.357189 2.004800
-1.184120 0.355724 1.995980
-1.185830 0.354747 1.988790
-1.183630 0.352306 1.975800
-1.175570 0.348399 1.952840
-1.160680 0.342540 1.918980
-1.142610 0.335459 1.879780
-1.180460 0.357433 2.038890
-1.182650 0.356456 2.032860
-1.184360 0.355235 2.025900
-1.184850 0.353771 2.016860
-1.183140 0.351573 2.003870
-1.184120 0.350352 1.995980
-1.184360 0.348888 1.986940
-1.182900 0.346934 1.974880
-1.169470 0.341319 1.942870
-1.153360 0.334971 1.906920
-1.180940 0.352062 2.039820
-1.183870 0.351329 2.034950
-1.183870 0.349620 2.024980
-1.183140 0.347911 2.013840
-1.182410 0.345958 2.002940
-1.185090 0.345225 1.997840
-1.186070 0.344005 1.989950
-1.178010 0.340098 1.966990
-1.153600 0.331553 1.916890
-1.147740 0.328379 1.897870
-1.144810 0.325938 1.883960
-1.182650 0.346934 2.042840
-1.183140 0.345470 2.033790
-1.183140 0.344005 2.023820
-1.181190 0.341807 2.010830
-1.183390 0.340831 2.004800
-1.186320 0.340098 1.999930
-1.186070 0.338389 1.989950
-1.176790 0.334239 1.964900
-1.156040 0.326914 1.920840
-1.151890 0.324229 1.904830
-1.148960 0.322031 1.890910
-1.181920 0.341319 2.041910
-1.181920 0.339610 2.031930
-1.181190 0.337901 2.020800
-1.181680 0.336436 2.011990
-1.183390 0.335459 2.004800
-1.186320 0.334727 1.999930
-1.186070 0.333018 1.989950
-1.179720 0.329844 1.969770
-1.165560 0.324229 1.936840
-1.160920 0.321543 1.919910
-1.150670 0.317392 1.893930
-1.181190 0.335459 2.040980
-1.181190 0.333995 2.030770
-1.181680 0.332530 2.021960
-1.183390 0.331553 2.014770
-1.184610 0.330088 2.006890
-1.185580 0.328867 1.999000
-1.182900 0.326670 1.984850
-1.180210 0.324473 1.970930
-1.168490 0.319834 1.941940
-1.166780 0.317881 1.929880
-1.150670 0.312021 1.893930
-1.182410 0.330332 2.042840
-1.181680 0.328623 2.031930
-1.181680 0.326914 2.021960
-1.183870 0.326182 2.015930
-1.185090 0.324961 2.007810
-1.186070 0.323740 1.999930
-1.183390 0.321543 1.985780
-1.178990 0.318857 1.968850
-1.170200 0.314951 1.944960
-1.163850 0.311777 1.924780
-1.149940 0.306650 1.892770
-1.182900 0.324717 2.044000
-1.182170 0.323252 2.032860
-1.182170 0.321543 2.022890
-1.183390 0.320322 2.014770
-1.185580 0.319590 2.008970
-1.186070 0.318125 1.999930
-1.183870 0.316172 1.986940
-1.178990 0.313486 1.968850
-1.167030 0.308847 1.939850
-1.161170 0.305918 1.920840
-1.145540 0.300546 1.885810
-1.182650 0.319346 2.044000
-1.182650 0.317637 2.033790
-1.182170 0.316172 2.022890
-1.182650 0.314707 2.013840
-1.185340 0.313974 2.008970
-1.186560 0.312998 2.000850
-1.185090 0.311045 1.988790
-1.178750 0.308115 1.968850
-1.168250 0.303964 1.941940
-1.158730 0.300058 1.916890
-1.146760 0.295663 1.887900
-1.180940 0.313242 2.040980
-1.182650 0.312265 2.033790
-1.182650 0.310800 2.023820
-1.182650 0.309336 2.013840
-1.183630 0.308115 2.005960
-1.184120 0.306894 1.996910
-1.183870 0.305429 1.986940
-1.178260 0.302499 1.967920
-1.172400 0.299570 1.948900
-1.164100 0.296152 1.925940
-1.152130 0.291757 1.896940
-1.181430 0.306406 2.031930
-1.180940 0.304697 2.020800
-1.180700 0.303232 2.010830
-1.182410 0.302255 2.003870
-1.182650 0.301035 1.994820
-1.183630 0.299814 1.986940
-1.178750 0.297372 1.968850
-1.174600 0.294931 1.952840
-1.167760 0.291757 1.931970
-1.153840 0.287118 1.899960
-1.180700 0.300546 2.030770
-1.180210 0.299081 2.019870
-1.181190 0.297861 2.011990
-1.182900 0.297128 2.004800
-1.182170 0.295419 1.993900
-1.183140 0.294443 1.985780
-1.180460 0.292245 1.971860
-1.177040 0.290292 1.956790
-1.168740 0.286874 1.933820
-1.157260 0.282723 1.905990
-1.180210 0.296396 2.039820
-1.181430 0.295175 2.031930
-1.181190 0.293954 2.021960
-1.182410 0.292734 2.013840
-1.182900 0.291513 2.004800
-1.182650 0.290048 1.994820
-1.182900 0.288827 1.985780
-1.181430 0.287362 1.973950
-1.175820 0.284433 1.954930
-1.167520 0.281259 1.931970
-1.154820 0.276864 1.901820
-1.182410 0.291269 2.044000
-1.182410 0.290048 2.033790
-1.182900 0.288827 2.024980
-1.183390 0.287606 2.015930
-1.183390 0.286142 2.005960
-1.182650 0.284677 1.994820
-1.182410 0.283456 1.984850
-1.179720 0.281503 1.970930
-1.172640 0.278573 1.949830
-1.168740 0.276376 1.933820
-1.155310 0.271981 1.902980
-1.182900 0.285897 2.044920
-1.183630 0.284677 2.035880
-1.184610 0.283700 2.027990
-1.183870 0.282235 2.016860
-1.185090 0.281259 2.008970
-1.184360 0.279794 1.997840
-1.184610 0.278573 1.988790
-1.181920 0.276620 1.974880
-1.173130 0.273202 1.950990
-1.168000 0.270760 1.932900
-1.157020 0.267098 1.905990
-1.181190 0.280038 2.041910
-1.181680 0.278817 2.032860
-1.182170 0.277596 2.023820
-1.182650 0.276376 2.014770
-1.183870 0.275399 2.006890
-1.183630 0.274178 1.996910
-1.183390 0.272713 1.986940
-1.180700 0.271004 1.972790
-1.174840 0.268319 1.953770
-1.170200 0.266121 1.936840
-1.161900 0.262947 1.913880
-1.179970 0.274178 2.039820
-1.179970 0.272713 2.029850
-1.180940 0.271737 2.021960
-1.182170 0.270760 2.013840
-1.183630 0.270028 2.006890
-1.184120 0.268807 1.997840
-1.182650 0.267342 1.985780
-1.181920 0.265877 1.974880
-1.181430 0.264412 1.964900
-1.178750 0.262703 1.950990
-1.170450 0.259774 1.927790
-1.179970 0.268563 2.039820
-1.179240 0.267098 2.028920
-1.180460 0.266121 2.020800
-1.181430 0.265145 2.012920
-1.181920 0.264168 2.003870
-1.181680 0.262703 1.993900
-1.181430 0.261483 1.983920
-1.181190 0.260262 1.973950
-1.181920 0.259285 1.965830
-1.182170 0.258065 1.956790
-1.170200 0.254402 1.927790
-1.179720 0.262947 2.039820
-1.179720 0.261727 2.029850
-1.180940 0.260750 2.021960
-1.182650 0.260018 2.014770
-1.183630 0.259041 2.006890
-1.183390 0.257820 1.996910
-1.182650 0.256355 1.985780
-1.182410 0.255135 1.975800
-1.181920 0.253914 1.965830
-1.178500 0.251961 1.950990
-1.161170 0.247322 1.912950
-1.179720 0.257332 2.039820
-1.180210 0.256355 2.030770
-1.180940 0.255379 2.021960
-1.183140 0.254646 2.015930
-1.184120 0.253670 2.007810
-1.183870 0.252449 1.997840
-1.183630 0.251228 1.987870
-1.183390 0.250008 1.977890
-1.178260 0.247810 1.959800
-1.171180 0.245125 1.938930
-1.156290 0.240974 1.904830
-1.179720 0.251961 2.039820
-1.179720 0.250740 2.029850
-1.179720 0.249519 2.019870
-1.181920 0.248787 2.013840
-1.183390 0.248054 2.006890
-1.184360 0.247078 1.999000
-1.184360 0.245857 1.988790
-1.183870 0.244636 1.978820
-1.178260 0.242439 1.959800
-1.173620 0.240486 1.942870
-1.158480 0.236335 1.908770
-1.181920 0.246834 2.044000
-1.181430 0.245613 2.032860
-1.181430 0.244392 2.022890
-1.181920 0.243416 2.013840
-1.183390 0.242439 2.006890
-1.183870 0.241462 1.997840
-1.183630 0.240486 1.987870
-1.184610 0.239509 1.979980
-1.181190 0.237800 1.964900
-1.180210 0.236335 1.953770
-1.166300 0.232673 1.921990
-1.182410 0.241462 2.044920
-1.181430 0.239998 2.032860
-1.181190 0.238777 2.022890
-1.181680 0.237800 2.013840
-1.183870 0.237312 2.007810
-1.183140 0.235847 1.996910
-1.184120 0.235115 1.988790
-1.186320 0.234382 1.983000
-1.185340 0.233161 1.971860
-1.183630 0.231697 1.959800
-1.168740 0.227790 1.925940
-1.182410 0.235847 2.044920
-1.182410 0.234626 2.034950
-1.182900 0.233650 2.025900
-1.183390 0.232673 2.016860
-1.183870 0.231697 2.007810
-1.184360 0.230720 1.999000
-1.185830 0.229987 1.991810
-1.188510 0.229499 1.986940
-1.186560 0.228034 1.973950
-1.183140 0.226325 1.958870
-1.168000 0.222419 1.924780
-1.147980 0.217780 1.882800
-1.180700 0.229987 2.041910
-1.180700 0.228767 2.031930
-1.181680 0.228034 2.023820
-1.182170 0.227058 2.014770
-1.183140 0.226081 2.006890
-1.184360 0.225349 1.999000
-1.186320 0.224616 1.992970
-1.188020 0.223884 1.985780
-1.185830 0.222419 1.972790
-1.181920 0.220710 1.956790
-1.169230 0.217536 1.926870
-1.149690 0.212897 1.885810
-1.179970 0.224128 2.040980
-1.181680 0.223395 2.033790
-1.181680 0.222419 2.023820
-1.182650 0.221686 2.015930
-1.183870 0.220710 2.007810
-1.184850 0.219977 1.999930
-1.187050 0.219245 1.993900
-1.186560 0.218268 1.983920
-1.185830 0.217048 1.972790
-1.181680 0.215339 1.956790
-1.173380 0.212897 1.933820
-1.150910 0.208014 1.887900
-1.179970 0.218757 2.040980
-1.181190 0.217780 2.032860
-1.181680 0.217048 2.023820
-1.182650 0.216071 2.015930
-1.183630 0.215339 2.007810
-1.184120 0.214362 1.999000
-1.186800 0.213874 1.993900
-1.186560 0.212897 1.983920
-1.188760 0.212409 1.977890
-1.185830 0.210944 1.963980
-1.175820 0.208014 1.938000
-1.152620 0.203131 1.890910
-1.181680 0.213385 2.044000
-1.182170 0.212653 2.034950
-1.182170 0.211432 2.024980
-1.183140 0.210700 2.016860
-1.182410 0.209723 2.005960
-1.182900 0.208747 1.996910
-1.186320 0.208502 1.992970
-1.189000 0.208014 1.987870
-1.192180 0.207526 1.983920
-1.188270 0.205817 1.967920
-1.180700 0.203619 1.945880
-1.153360 0.198004 1.891840
-1.182170 0.208014 2.044920
-1.182170 0.207038 2.034950
-1.182170 0.206061 2.024980
-1.181920 0.205084 2.014770
-1.181190 0.203864 2.003870
-1.181680 0.203131 1.994820
-1.185580 0.202887 1.991810
-1.189490 0.202643 1.988790
-1.191690 0.202155 1.983000
-1.188270 0.200446 1.967920
-1.178010 0.198004 1.941940
-1.158240 0.193609 1.899960
-1.182650 0.202399 2.045850
-1.182170 0.201422 2.034950
-1.182650 0.200690 2.025900
-1.183140 0.199713 2.016860
-1.183630 0.198981 2.007810
-1.183390 0.198004 1.997840
-1.186800 0.197516 1.993900
-1.189980 0.197272 1.989950
-1.187050 0.195074 1.965830
-1.178750 0.192877 1.942870
-1.159220 0.188726 1.901820
-1.180940 0.196783 2.042840
-1.181430 0.195807 2.033790
-1.183870 0.195318 2.027990
-1.184850 0.194586 2.019870
-1.184850 0.193609 2.009900
-1.183870 0.192633 1.999000
-1.186800 0.192145 1.993900
-1.189490 0.191656 1.988790
-1.184120 0.188238 1.951920
-1.164100 0.184332 1.909930
-1.179240 0.191656 2.049790
-1.180940 0.191168 2.042840
-1.182170 0.190435 2.034950
-1.184850 0.189947 2.029850
-1.186560 0.189459 2.022890
-1.185830 0.188482 2.011990
-1.185090 0.187262 2.000850
-1.195590 0.186529 1.989950
-1.189000 0.183843 1.959800
-1.169470 0.179937 1.918980
-1.180210 0.186285 2.051880
-1.181430 0.185553 2.044000
-1.182650 0.185064 2.035880
-1.184850 0.184332 2.029850
-1.186560 0.183843 2.022890
-1.191930 0.178961 1.964900
-1.171910 0.175054 1.922920
-1.181430 0.180914 2.053970
-1.182650 0.180181 2.045850
-1.183630 0.179693 2.037970
-1.184360 0.178716 2.028920
-1.192420 0.173589 1.965830
-1.173620 0.170171 1.925940
-1.181430 0.175298 2.053970
-1.183630 0.174810 2.047940
-1.183140 0.174078 2.036810
-1.184120 0.173345 2.028920
-1.178010 0.165532 1.932900
-1.181430 0.169683 2.053970
-1.183140 0.169195 2.046780
-1.183140 0.168462 2.036810
-1.182410 0.167486 2.025900
-1.178010 0.160161 1.932900
-1.181190 0.164068 2.053970
-1.182410 0.163579 2.045850
-1.181920 0.162603 2.034950
-1.181190 0.161870 2.023820
-1.180940 0.155278 1.938000
-1.182410 0.158696 2.055820
-1.182410 0.157964 2.045850
-1.182410 0.157231 2.035880
-1.180700 0.156255 2.022890
-1.182410 0.153081 2.055820
-1.182410 0.152348 2.045850
-1.182900 0.151860 2.036810
-1.181680 0.150884 2.024980
-1.182170 0.150395 2.015930
-1.182900 0.146977 2.046780
-1.184120 0.146489 2.038890
-1.182900 0.145512 2.026830
-1.183390 0.145024 2.017790
-1.180700 0.141118 2.042840
-1.182410 0.140629 2.035880
-1.183390 0.140141 2.027990
-1.184610 0.139653 2.019870
-1.179480 0.135502 2.040980
-1.180700 0.135014 2.032860
-1.181680 0.134526 2.024980
-1.182650 0.134037 2.016860
-1.178260 0.129643 2.038890
-1.178750 0.129154 2.029850
-1.181190 0.128910 2.023820
-1.182170 0.128422 2.015930
-1.175330 0.125736 2.063940
-1.175820 0.125248 2.054900
-1.177770 0.124760 2.047940
-1.179480 0.124271 2.040980
-1.181190 0.124027 2.033790
-1.181680 0.123539 2.024980
-1.181430 0.122806 2.014770
-1.175080 0.120121 2.063940
-1.175820 0.119633 2.054900
-1.177530 0.119144 2.047940
-1.180460 0.118900 2.042840
-1.183390 0.118656 2.037970
-1.183390 0.118168 2.027990
-1.182170 0.117435 2.015930
-1.175080 0.114505 2.063940
-1.177040 0.114017 2.056980
-1.179240 0.113773 2.050950
-1.182900 0.113529 2.046780
-1.185090 0.113285 2.040980
-1.183870 0.112552 2.028920
-1.182650 0.112064 2.016860
-1.178010 0.109134 2.068810
-1.179720 0.108890 2.061850
-1.179970 0.108158 2.051880
-1.181190 0.107913 2.044000
-1.182170 0.107425 2.035880
-1.182170 0.106937 2.025900
-1.181920 0.106449 2.015930
-1.178010 0.103519 2.068810
-1.180460 0.103275 2.062780
-1.179240 0.102542 2.050950
-1.179240 0.102054 2.040980
-1.179240 0.101566 2.030770
-1.180940 0.101321 2.023820
-1.181920 0.101077 2.015930
-1.178010 0.097903 2.068810
-1.179240 0.097415 2.060930
-1.178010 0.096927 2.048870
-1.177530 0.096438 2.037970
-1.179240 0.096194 2.030770
-1.180460 0.095706 2.022890
-1.180700 0.095462 2.013840
-1.176790 0.092288 2.066960
-1.179240 0.092044 2.060930
-1.180460 0.091555 2.052810
-1.179970 0.091067 2.041910
-1.180940 0.090823 2.033790
-1.182170 0.090335 2.025900
-1.181430 0.090091 2.014770
-1.176790 0.086673 2.066960
-1.178500 0.086184 2.060000
-1.180460 0.085940 2.052810
-1.180940 0.085696 2.044000
-1.181430 0.085208 2.034950
-1.182650 0.084964 2.026830
-1.181430 0.084475 2.014770
-1.176310 0.080813 2.065800
-1.180460 0.080569 2.052810
-1.180940 0.080081 2.044000
-1.180460 0.079592 2.032860
-1.182170 0.079348 2.025900
-1.181920 0.079104 2.015930
-1.175080 0.075198 2.063940
-1.176310 0.074953 2.055820
-1.178750 0.074709 2.049790
-1.179720 0.074465 2.041910
-1.179720 0.074221 2.031930
-1.181430 0.073977 2.024980
-1.181430 0.073489 2.014770
-1.175570 0.069582 2.064870
-1.177530 0.069338 2.057910
-1.179240 0.069338 2.050950
-1.179720 0.068850 2.041910
-1.180940 0.068606 2.033790
-1.181920 0.068361 2.025900
-1.182410 0.068117 2.016860
-1.176060 0.064211 2.065800
-1.176790 0.063723 2.056980
-1.178010 0.063723 2.048870
-1.178750 0.063234 2.039820
-1.182650 0.063234 2.036810
-1.182650 0.062990 2.026830
-1.183140 0.062746 2.017790
-1.176060 0.058596 2.065800
-1.176790 0.058351 2.056980
-1.176790 0.057863 2.046780
-1.179240 0.057863 2.040980
-1.183870 0.057863 2.038890
-1.184360 0.057619 2.029850
-1.184120 0.057375 2.019870
-1.175570 0.052980 2.064870
-1.177280 0.052736 2.057910
-1.178010 0.052492 2.048870
-1.180460 0.052248 2.042840
-1.184360 0.052248 2.039820
-1.184360 0.052003 2.029850
-1.183630 0.051759 2.018950
-1.175570 0.047365 2.064870
-1.178500 0.047121 2.060000
-1.179720 0.046876 2.051880
-1.182170 0.046876 2.045850
-1.183140 0.046632 2.037970
-1.183140 0.046388 2.027990
-1.175570 0.041749 2.064870
-1.178500 0.041505 2.060000
-1.180210 0.041505 2.052810
-1.181430 0.041261 2.044920
-1.180210 0.041017 2.032860
-1.180700 0.040773 2.023820
-1.175080 0.036134 2.063940
-1.177280 0.035890 2.057910
-1.178010 0.035890 2.048870
-1.180210 0.035646 2.042840
-1.179240 0.035402 2.030770
-1.180210 0.035402 2.022890
-1.176060 0.030519 2.065800
-1.178010 0.030274 2.058840
-1.177530 0.030274 2.047940
-1.179240 0.030030 2.040980
-1.178990 0.030030 2.030770
-1.181430 0.029786 2.024980
-1.182410 0.029786 2.016860
-1.176790 0.024903 2.066960
-1.178990 0.024903 2.060930
-1.177530 0.024659 2.047940
-1.179240 0.024659 2.040980
-1.180210 0.024415 2.032860
-1.184850 0.024415 2.030770
-1.184850 0.024415 2.020800
-1.176060 0.019288 2.065800
-1.179720 0.019288 2.061850
-1.179720 0.019043 2.051880
-1.180210 0.019043 2.042840
-1.180940 0.019043 2.033790
-1.184360 0.019043 2.029850
-1.184850 0.018799 2.020800
-1.176060 0.013672 2.065800
-1.180210 0.013672 2.062780
-1.180940 0.013672 2.053970
-1.180210 0.013428 2.042840
-1.180940 0.013428 2.033790
-1.183140 0.013428 2.027990
-1.183630 0.013428 2.018950
-1.180210 0.008057 2.062780
-1.180940 0.008057 2.053970
-1.179720 0.008057 2.041910
-1.179720 0.007813 2.031930
-1.178990 0.007813 2.020800
-1.180700 0.007813 2.013840
-1.180210 0.002441 2.062780
-1.179720 0.002441 2.051880
-1.179240 0.002441 2.040980
-1.179720 0.002441 2.031930
-1.179480 0.002441 2.021960
-1.181190 0.002441 2.014770
-1.178990 -0.002930 2.060930
-1.179720 -0.002930 2.051880
-1.180940 -0.002930 2.044000
-1.178990 -0.002930 2.030770
-1.179480 -0.002930 2.021960
-1.180700 -0.002930 2.013840
-1.178010 -0.008545 2.058840
-1.179240 -0.008545 2.050950
-1.181430 -0.008545 2.044920
-1.180210 -0.008301 2.032860
-1.181430 -0.008301 2.024980
-1.182410 -0.008301 2.016860
-1.178010 -0.014161 2.058840
-1.179720 -0.014161 2.051880
-1.180940 -0.013916 2.044000
-1.180210 -0.013916 2.032860
-1.181430 -0.013916 2.024980
-1.181920 -0.013916 2.015930
-1.178990 -0.019776 2.060930
-1.179720 -0.019532 2.051880
-1.179720 -0.019532 2.041910
-1.180210 -0.019532 2.032860
-1.180700 -0.019288 2.023820
-1.181920 -0.019288 2.015930
-1.180700 -0.025391 2.063940
-1.180940 -0.025147 2.053970
-1.178500 -0.025147 2.039820
-1.178990 -0.024903 2.030770
-1.178990 -0.024903 2.020800
-1.180700 -0.024659 2.013840
-1.181680 -0.024659 2.005960
-1.183630 -0.024415 1.989950
-1.180210 -0.031007 2.062780
-1.181430 -0.030763 2.054900
-1.179720 -0.030519 2.041910
-1.179720 -0.030519 2.031930
-1.178500 -0.030274 2.019870
-1.179970 -0.030274 2.012920
-1.180460 -0.030030 2.003870
-1.181430 -0.030030 1.995980
-1.182410 -0.029786 1.987870
-1.176790 -0.036622 2.066960
-1.179720 -0.036378 2.061850
-1.182650 -0.036378 2.056980
-1.180210 -0.036134 2.042840
-1.180210 -0.035890 2.032860
-1.179720 -0.035890 2.021960
-1.179970 -0.035646 2.012920
-1.179970 -0.035402 2.002940
-1.179720 -0.035402 1.992970
-1.175080 -0.042238 2.063940
-1.178500 -0.041993 2.060000
-1.181920 -0.041993 2.055820
-1.181430 -0.041749 2.044920
-1.180210 -0.041505 2.032860
-1.179720 -0.041261 2.021960
-1.179970 -0.041017 2.012920
-1.180460 -0.041017 2.003870
-1.180210 -0.040773 1.993900
-1.182410 -0.040529 1.987870
-1.183870 -0.040529 1.980910
-1.184120 -0.040284 1.971860
-1.185830 -0.038087 1.849860
-1.188020 -0.037843 1.844990
-1.191440 -0.037843 1.841980
-1.173860 -0.047609 2.061850
-1.178010 -0.047609 2.058840
-1.181430 -0.047609 2.054900
-1.181430 -0.047365 2.044920
-1.181430 -0.047121 2.034950
-1.180700 -0.046876 2.023820
-1.181920 -0.046632 2.015930
-1.181190 -0.046388 2.004800
-1.181430 -0.046144 1.995980
-1.182900 -0.046144 1.988790
-1.184360 -0.045900 1.981840
-1.184120 -0.045656 1.971860
-1.183630 -0.045412 1.961890
-1.182650 -0.043214 1.861920
-1.181680 -0.042970 1.851950
-1.180700 -0.042726 1.841980
-1.180940 -0.042726 1.833860
-1.181920 -0.042482 1.826900
-1.175080 -0.053224 2.063940
-1.178500 -0.053224 2.060000
-1.179720 -0.052980 2.051880
-1.180940 -0.052736 2.044000
-1.180940 -0.052492 2.033790
-1.178990 -0.052248 2.020800
-1.180210 -0.052003 2.012920
-1.179970 -0.051759 2.002940
-1.182650 -0.051759 1.997840
-1.182410 -0.051515 1.987870
-1.183870 -0.051271 1.980910
-1.182410 -0.051027 1.968850
-1.182650 -0.050783 1.959800
-1.182170 -0.050539 1.949830
-1.182170 -0.050294 1.940780
-1.181680 -0.050050 1.930810
-1.179970 -0.049806 1.918980
-1.178010 -0.048586 1.871900
-1.177770 -0.048341 1.862850
-1.179480 -0.048341 1.856820
-1.181190 -0.048097 1.850790
-1.179480 -0.047853 1.839890
-1.179720 -0.047609 1.831770
-1.179240 -0.047365 1.822960
-1.176060 -0.059084 2.065800
-1.178500 -0.058840 2.060000
-1.179720 -0.058596 2.051880
-1.181430 -0.058351 2.044920
-1.181430 -0.058107 2.034950
-1.178990 -0.057863 2.020800
-1.179480 -0.057619 2.011990
-1.179970 -0.057375 2.002940
-1.182650 -0.057131 1.997840
-1.181920 -0.056887 1.986940
-1.182650 -0.056642 1.978820
-1.181680 -0.056398 1.967920
-1.182650 -0.056154 1.959800
-1.181430 -0.055910 1.948900
-1.182170 -0.055666 1.940780
-1.180460 -0.055177 1.928950
-1.180460 -0.054933 1.919910
-1.179240 -0.054689 1.908770
-1.178500 -0.054445 1.898800
-1.178500 -0.054201 1.889990
-1.178990 -0.053957 1.881870
-1.177530 -0.053713 1.870970
-1.176550 -0.053468 1.860990
-1.177040 -0.053224 1.852880
-1.179720 -0.052980 1.848930
-1.180700 -0.052980 1.841980
-1.180940 -0.052736 1.833860
-1.179970 -0.052492 1.823880
-1.177530 -0.052003 1.811820
-1.177280 -0.064699 2.067890
-1.178500 -0.064455 2.060000
-1.179720 -0.064211 2.051880
-1.180460 -0.063967 2.042840
-1.178500 -0.063478 2.029850
-1.178010 -0.063234 2.018950
-1.178260 -0.062990 2.009900
-1.179480 -0.062746 2.001780
-1.180940 -0.062502 1.994820
-1.179970 -0.062258 1.983920
-1.181430 -0.062014 1.976960
-1.181190 -0.061525 1.966990
-1.182650 -0.061525 1.959800
-1.180940 -0.061037 1.947970
-1.180460 -0.060793 1.938000
-1.178750 -0.060305 1.925940
-1.178010 -0.060060 1.915960
-1.176060 -0.059816 1.903900
-1.176060 -0.059572 1.894860
-1.176060 -0.059328 1.885810
-1.177770 -0.059084 1.879780
-1.176790 -0.058840 1.869810
-1.176550 -0.058596 1.860990
-1.177040 -0.058351 1.852880
-1.181680 -0.058107 1.851950
-1.183390 -0.058107 1.845920
-1.184360 -0.057863 1.838960
-1.181920 -0.057375 1.826900
-1.180210 -0.057131 1.816000
-1.177280 -0.070315 2.067890
-1.178010 -0.070070 2.058840
-1.179240 -0.069826 2.050950
-1.179240 -0.069338 2.040980
-1.178500 -0.069094 2.029850
-1.178010 -0.068606 2.018950
-1.177770 -0.068361 2.008970
-1.179480 -0.068117 2.001780
-1.179720 -0.067873 1.992970
-1.179480 -0.067385 1.983000
-1.180940 -0.067385 1.975800
-1.181190 -0.066897 1.966990
-1.181920 -0.066652 1.958870
-1.181430 -0.066408 1.948900
-1.181680 -0.066164 1.939850
-1.179970 -0.065676 1.927790
-1.178750 -0.065432 1.916890
-1.176310 -0.064943 1.903900
-1.176060 -0.064699 1.894860
-1.177280 -0.064455 1.887900
-1.178260 -0.064211 1.880940
-1.178010 -0.063967 1.871900
-1.176550 -0.063478 1.860990
-1.177530 -0.063234 1.853800
-1.181190 -0.063234 1.850790
-1.182170 -0.062990 1.843830
-1.182410 -0.062746 1.835940
-1.181190 -0.062502 1.825970
-1.181430 -0.062258 1.817850
-1.178010 -0.075930 2.068810
-1.178010 -0.075686 2.058840
-1.178750 -0.075198 2.049790
-1.178750 -0.074953 2.039820
-1.178500 -0.074465 2.029850
-1.178990 -0.074221 2.020800
-1.178500 -0.073733 2.009900
-1.178750 -0.073489 2.000850
-1.180460 -0.073244 1.993900
-1.181190 -0.073000 1.985780
-1.182170 -0.072756 1.977890
-1.179970 -0.072268 1.964900
-1.180700 -0.072024 1.956790
-1.182170 -0.071779 1.949830
-1.184120 -0.071535 1.943800
-1.181680 -0.071047 1.930810
-1.178010 -0.070559 1.915960
-1.176310 -0.070070 1.903900
-1.176060 -0.069826 1.894860
-1.177770 -0.069582 1.888830
-1.178260 -0.069338 1.880940
-1.178260 -0.069094 1.871900
-1.176550 -0.068606 1.860990
-1.179480 -0.068606 1.856820
-1.179240 -0.068117 1.847770
-1.179480 -0.067873 1.839890
-1.178500 -0.067629 1.829910
-1.179240 -0.067385 1.822960
-1.177280 -0.081546 2.067890
-1.178010 -0.081057 2.058840
-1.177530 -0.080813 2.047940
-1.178010 -0.080325 2.038890
-1.179240 -0.080081 2.030770
-1.180210 -0.079836 2.022890
-1.178990 -0.079348 2.010830
-1.179970 -0.079104 2.002940
-1.180940 -0.078616 1.994820
-1.182410 -0.078372 1.987870
-1.181680 -0.078127 1.976960
-1.178750 -0.077639 1.962820
-1.178500 -0.077151 1.952840
-1.180940 -0.076907 1.947970
-1.182900 -0.076663 1.941940
-1.182410 -0.076418 1.931970
-1.179240 -0.075930 1.917820
-1.178010 -0.075442 1.906920
-1.179240 -0.075198 1.899960
-1.180460 -0.074953 1.892770
-1.179720 -0.074465 1.882800
-1.178260 -0.074221 1.871900
-1.178010 -0.073733 1.862850
-1.180210 -0.073489 1.857980
-1.179970 -0.073244 1.848930
-1.177530 -0.072756 1.836870
-1.176550 -0.072512 1.826900
-1.178010 -0.072268 1.820870
-1.178260 -0.072024 1.812980
-1.176790 -0.086673 2.056980
-1.177530 -0.086184 2.047940
-1.179720 -0.085940 2.041910
-1.180940 -0.085696 2.033790
-1.181430 -0.085452 2.024980
-1.180700 -0.084964 2.013840
-1.181190 -0.084475 2.004800
