0.031739 -0.794702 2.267820
0.025635 -0.792993 2.262950
0.019288 -0.791528 2.258770
0.013184 -0.789819 2.253900
0.007080 -0.789087 2.251810
0.000977 -0.788842 2.250890
-0.004883 -0.788842 2.250890
-0.010987 -0.788842 2.250890
-0.017090 -0.788354 2.249960
-0.023194 -0.788842 2.250890
-0.029298 -0.789087 2.251810
-0.035402 -0.789331 2.252970
-0.041505 -0.789819 2.253900
-0.047609 -0.789819 2.253900
-0.053713 -0.789819 2.253900
-0.059816 -0.789819 2.253900
-0.065676 -0.789331 2.252970
-0.071779 -0.788842 2.250890
-0.077883 -0.789087 2.251810
-0.083987 -0.789331 2.252970
-0.090091 -0.789331 2.252970
-0.096194 -0.789087 2.251810
-0.102298 -0.789087 2.251810
-0.108402 -0.789331 2.252970
-0.120609 -0.788598 2.250890
-0.126713 -0.788598 2.250890
-0.132817 -0.789819 2.253900
-0.139164 -0.791040 2.257840
-0.145512 -0.791772 2.259930
-0.151616 -0.792261 2.260860
-0.157720 -0.792261 2.260860
-0.163823 -0.792261 2.260860
-0.170171 -0.792749 2.262950
-0.176275 -0.792505 2.261790
-0.182379 -0.792505 2.261790
-0.188238 -0.791528 2.258770
-0.194342 -0.791284 2.258770
-0.200446 -0.791284 2.258770
-0.206549 -0.791772 2.259930
-0.212653 -0.792016 2.260860
-0.219001 -0.792505 2.261790
-0.225105 -0.792505 2.261790
-0.231208 -0.792505 2.261790
-0.237312 -0.792749 2.262950
-0.243660 -0.793481 2.264800
-0.250008 -0.793725 2.265960
-0.256600 -0.795190 2.269910
-0.263436 -0.797143 2.275940
-0.270272 -0.799341 2.281970
-0.277108 -0.801538 2.288000
-0.284433 -0.804224 2.295880
-0.291757 -0.807642 2.305860
-0.299814 -0.812281 2.318850
0.083255 -0.826197 2.339950
0.076663 -0.822047 2.327890
0.069826 -0.816919 2.313970
0.063234 -0.812769 2.301910
0.056887 -0.808863 2.290780
0.050539 -0.806177 2.282890
0.044191 -0.803980 2.276860
0.037843 -0.801782 2.270830
0.031739 -0.800562 2.266890
0.025391 -0.798364 2.260860
0.019288 -0.797388 2.257840
0.013184 -0.795923 2.253900
0.007080 -0.795190 2.251810
0.000977 -0.794702 2.250890
-0.004883 -0.794458 2.249960
-0.010987 -0.794702 2.250890
-0.017090 -0.794702 2.250890
-0.023194 -0.794702 2.250890
-0.029298 -0.795190 2.251810
-0.035157 -0.794702 2.250890
-0.041261 -0.795190 2.251810
-0.047609 -0.795434 2.252970
-0.108402 -0.795434 2.252970
-0.120365 -0.793725 2.247870
-0.126469 -0.794458 2.249960
-0.132817 -0.795190 2.251810
-0.139164 -0.796411 2.255990
-0.145268 -0.797632 2.258770
-0.151616 -0.797876 2.259930
-0.157720 -0.798120 2.260860
-0.163823 -0.798120 2.260860
-0.170171 -0.799341 2.263880
-0.176275 -0.798608 2.261790
-0.182134 -0.798120 2.260860
-0.187994 -0.797143 2.257840
-0.194098 -0.797143 2.257840
-0.200201 -0.796655 2.256920
-0.206305 -0.797143 2.257840
-0.212653 -0.797876 2.259930
-0.218757 -0.798120 2.260860
-0.225105 -0.798364 2.261790
-0.231208 -0.798364 2.261790
-0.237312 -0.798853 2.262950
-0.243416 -0.798853 2.262950
-0.249763 -0.798853 2.262950
-0.256111 -0.800317 2.266890
-0.262947 -0.802271 2.272920
-0.270028 -0.804712 2.279880
-0.276864 -0.806909 2.285910
-0.284188 -0.809595 2.293800
-0.291513 -0.812769 2.302840
-0.299326 -0.817896 2.316990
0.083255 -0.830592 2.334850
0.076418 -0.826197 2.321860
0.069826 -0.821070 2.307940
0.063234 -0.817896 2.298900
0.056642 -0.814478 2.288920
0.050539 -0.811792 2.281970
0.044191 -0.809107 2.273850
0.037843 -0.806909 2.267820
0.031739 -0.805933 2.264800
0.025391 -0.803735 2.258770
0.019288 -0.802515 2.255990
0.013184 -0.801294 2.251810
0.007080 -0.800806 2.250890
0.000977 -0.800806 2.250890
-0.004883 -0.801294 2.251810
-0.010987 -0.801294 2.251810
-0.017090 -0.800806 2.250890
-0.023194 -0.800806 2.250890
-0.029298 -0.800806 2.250890
-0.035402 -0.801294 2.251810
-0.041505 -0.801538 2.252970
-0.102542 -0.803247 2.257840
-0.114261 -0.800317 2.249960
-0.126469 -0.799341 2.246940
-0.132572 -0.800317 2.249960
-0.138920 -0.802271 2.254830
-0.145268 -0.803003 2.256920
-0.151372 -0.803247 2.257840
-0.157476 -0.803491 2.258770
-0.163823 -0.804224 2.260860
-0.170171 -0.804956 2.262950
-0.176031 -0.804224 2.260860
-0.182134 -0.803491 2.258770
-0.187994 -0.802759 2.256920
-0.194098 -0.802759 2.256920
-0.199957 -0.802515 2.255990
-0.206061 -0.802515 2.255990
-0.212409 -0.803247 2.257840
-0.218757 -0.803491 2.258770
-0.224860 -0.803735 2.259930
-0.230964 -0.803735 2.259930
-0.237312 -0.804224 2.260860
-0.243171 -0.803735 2.259930
-0.249519 -0.804224 2.260860
-0.255867 -0.805200 2.263880
-0.262703 -0.807398 2.269910
-0.269539 -0.809595 2.275940
-0.276620 -0.812037 2.282890
-0.283700 -0.814722 2.290780
-0.291025 -0.817896 2.299830
-0.298837 -0.822291 2.311890
0.090579 -0.846950 2.362910
0.083010 -0.835231 2.329980
0.076418 -0.831568 2.319770
0.069826 -0.827662 2.308870
0.063234 -0.823756 2.297970
0.056642 -0.820093 2.288000
0.050294 -0.816919 2.278950
0.043947 -0.814478 2.271990
0.037843 -0.812281 2.265960
0.031739 -0.811304 2.262950
0.025391 -0.809839 2.258770
0.019288 -0.808374 2.254830
0.013184 -0.807642 2.252970
0.007080 -0.806909 2.250890
0.000977 -0.806909 2.250890
-0.004883 -0.806909 2.250890
-0.010987 -0.806909 2.250890
-0.017090 -0.806909 2.250890
-0.023194 -0.806909 2.250890
-0.029298 -0.807154 2.251810
-0.035402 -0.807642 2.252970
-0.102786 -0.810327 2.260860
-0.108402 -0.807642 2.252970
-0.114261 -0.805444 2.246940
-0.132572 -0.806177 2.248800
-0.138920 -0.807642 2.252970
-0.145024 -0.807886 2.253900
-0.151372 -0.808618 2.255990
-0.157476 -0.809595 2.258770
-0.169927 -0.810816 2.261790
-0.176031 -0.810083 2.259930
-0.181890 -0.809351 2.257840
-0.187994 -0.808618 2.255990
-0.193854 -0.808130 2.254830
-0.199957 -0.807886 2.253900
-0.206061 -0.807886 2.253900
-0.212165 -0.808130 2.254830
-0.218513 -0.808863 2.256920
-0.224616 -0.809107 2.257840
-0.230720 -0.809107 2.257840
-0.237068 -0.809595 2.258770
-0.243171 -0.809595 2.258770
-0.249519 -0.810327 2.260860
-0.255867 -0.811060 2.262950
-0.262215 -0.812281 2.266890
-0.269051 -0.814478 2.272920
-0.276131 -0.816675 2.278950
-0.283212 -0.819849 2.288000
-0.290536 -0.823023 2.296810
-0.298105 -0.826685 2.306780
0.090335 -0.850368 2.354800
0.083010 -0.841090 2.328820
0.076418 -0.837916 2.319770
0.069826 -0.834986 2.311890
0.063234 -0.830592 2.299830
0.056642 -0.826685 2.288920
0.050294 -0.822779 2.277790
0.043947 -0.819849 2.269910
0.037843 -0.817164 2.262950
0.031495 -0.816675 2.260860
0.025391 -0.815455 2.257840
0.019288 -0.813990 2.253900
0.013184 -0.813257 2.251810
0.007080 -0.812281 2.248800
0.000977 -0.812281 2.248800
-0.004883 -0.812281 2.248800
-0.010987 -0.812281 2.248800
-0.017090 -0.812281 2.248800
-0.023194 -0.812525 2.249960
-0.029298 -0.813013 2.250890
-0.035402 -0.813257 2.251810
-0.041505 -0.813746 2.252970
-0.096438 -0.816187 2.259930
-0.102542 -0.815699 2.258770
-0.108402 -0.814234 2.254830
-0.114261 -0.812525 2.249960
-0.120121 -0.811060 2.245780
-0.126225 -0.811060 2.245780
-0.132328 -0.811548 2.246940
-0.138676 -0.812525 2.249960
-0.144780 -0.812769 2.250890
-0.151128 -0.814234 2.254830
-0.157476 -0.815699 2.258770
-0.169927 -0.816431 2.260860
-0.175787 -0.815699 2.258770
-0.181890 -0.815455 2.257840
-0.187750 -0.814234 2.254830
-0.193854 -0.813990 2.253900
-0.199713 -0.813257 2.251810
-0.205817 -0.813257 2.251810
-0.211921 -0.813501 2.252970
-0.218268 -0.814234 2.254830
-0.224372 -0.814234 2.254830
-0.230476 -0.814478 2.255990
-0.236824 -0.814966 2.256920
-0.243171 -0.815699 2.258770
-0.249275 -0.815943 2.259930
-0.255623 -0.816431 2.260860
-0.261727 -0.816675 2.261790
-0.268563 -0.818873 2.267820
-0.275643 -0.821314 2.274780
-0.282723 -0.824488 2.283820
-0.290048 -0.827906 2.292870
-0.297617 -0.831813 2.303770
0.083010 -0.846950 2.327890
0.076418 -0.843776 2.318850
0.069826 -0.841823 2.313970
0.063234 -0.836695 2.299830
0.056887 -0.833277 2.289850
0.050294 -0.828883 2.277790
0.043947 -0.826197 2.270830
0.037843 -0.823756 2.263880
0.031495 -0.821802 2.258770
0.025391 -0.821070 2.256920
0.019288 -0.820093 2.253900
0.013184 -0.819361 2.251810
0.007080 -0.818384 2.248800
0.000977 -0.817652 2.246940
-0.004883 -0.817164 2.245780
-0.010987 -0.817164 2.245780
-0.017090 -0.817896 2.247870
-0.022950 -0.818384 2.248800
-0.029054 -0.818384 2.248800
-0.035157 -0.817896 2.247870
-0.041261 -0.818628 2.249960
-0.090335 -0.822291 2.259930
-0.096683 -0.822535 2.260860
-0.102542 -0.821802 2.258770
-0.108402 -0.820338 2.254830
-0.114261 -0.818628 2.249960
-0.120121 -0.816675 2.244860
-0.132328 -0.816675 2.244860
-0.138432 -0.817408 2.246940
-0.144780 -0.818140 2.248800
-0.151128 -0.820093 2.253900
-0.157476 -0.821802 2.258770
-0.163579 -0.821802 2.258770
-0.169683 -0.821802 2.258770
-0.175787 -0.821314 2.257840
-0.181890 -0.821070 2.256920
-0.187750 -0.819849 2.253900
-0.193609 -0.819117 2.251810
-0.199469 -0.818384 2.249960
-0.205573 -0.818384 2.249960
-0.211676 -0.818873 2.250890
-0.218268 -0.819849 2.253900
-0.224128 -0.819849 2.253900
-0.230476 -0.820338 2.254830
-0.236579 -0.820338 2.254830
-0.242927 -0.821070 2.256920
-0.249275 -0.821802 2.258770
-0.255379 -0.822047 2.259930
-0.261727 -0.822779 2.261790
-0.268319 -0.824488 2.266890
-0.275399 -0.826685 2.272920
-0.282479 -0.830103 2.281970
-0.289804 -0.833033 2.289850
-0.297372 -0.836940 2.300990
0.083010 -0.853298 2.327890
0.076174 -0.849635 2.317920
0.069826 -0.847438 2.311890
0.063234 -0.842555 2.298900
0.056642 -0.838649 2.288000
0.050294 -0.835231 2.278950
0.043947 -0.833033 2.272920
0.037843 -0.830592 2.265960
0.031495 -0.828394 2.259930
0.025391 -0.826930 2.255990
0.019288 -0.825709 2.252970
0.013184 -0.824976 2.250890
0.007080 -0.824000 2.247870
0.000977 -0.823267 2.245780
-0.004883 -0.822535 2.243930
-0.010987 -0.822535 2.243930
-0.016846 -0.823267 2.245780
-0.022950 -0.823511 2.246940
-0.029054 -0.823511 2.246940
-0.035157 -0.823511 2.246940
-0.041261 -0.824244 2.248800
-0.078372 -0.829127 2.261790
-0.084475 -0.829127 2.261790
-0.090335 -0.828639 2.260860
-0.096438 -0.828394 2.259930
-0.102542 -0.827906 2.258770
-0.108402 -0.826441 2.254830
-0.114261 -0.824732 2.249960
-0.120121 -0.822779 2.244860
-0.138432 -0.822779 2.244860
-0.144536 -0.823511 2.246940
-0.150884 -0.825220 2.251810
-0.157231 -0.826685 2.255990
-0.163579 -0.827418 2.257840
-0.169683 -0.827418 2.257840
-0.175787 -0.827174 2.256920
-0.181646 -0.826685 2.255990
-0.187506 -0.825709 2.252970
-0.193609 -0.824976 2.250890
-0.199469 -0.824488 2.249960
-0.205573 -0.824244 2.248800
-0.211676 -0.824976 2.250890
-0.218024 -0.825220 2.251810
-0.224128 -0.825709 2.252970
-0.230232 -0.825709 2.252970
-0.236335 -0.825220 2.251810
-0.242439 -0.825953 2.253900
-0.249031 -0.826930 2.256920
-0.255135 -0.827418 2.257840
-0.261483 -0.827662 2.258770
-0.267830 -0.829127 2.262950
-0.275155 -0.832057 2.270830
-0.282235 -0.834986 2.278950
-0.289560 -0.838404 2.288000
-0.297128 -0.842311 2.298900
0.083010 -0.860866 2.331830
0.076418 -0.856960 2.320930
0.069826 -0.854030 2.312810
0.063234 -0.848903 2.298900
0.056642 -0.844020 2.285910
0.050294 -0.841090 2.277790
0.043947 -0.838893 2.271990
0.037843 -0.836695 2.265960
0.031495 -0.834010 2.258770
0.025391 -0.832545 2.254830
0.019288 -0.831813 2.252970
0.013184 -0.830348 2.248800
0.007080 -0.829615 2.246940
0.000977 -0.828883 2.244860
-0.004883 -0.828883 2.244860
-0.010987 -0.828883 2.244860
-0.016846 -0.829127 2.245780
-0.022950 -0.829127 2.245780
-0.029054 -0.829615 2.246940
-0.035157 -0.829615 2.246940
-0.078372 -0.835963 2.263880
-0.084475 -0.835475 2.262950
-0.090335 -0.834498 2.259930
-0.096438 -0.834010 2.258770
-0.102542 -0.833277 2.256920
-0.108402 -0.832057 2.253900
-0.114261 -0.830348 2.248800
-0.120121 -0.828883 2.244860
-0.144536 -0.829127 2.245780
-0.150884 -0.830348 2.248800
-0.157231 -0.831813 2.252970
-0.163579 -0.833277 2.256920
-0.169683 -0.833522 2.257840
-0.175787 -0.833522 2.257840
-0.181646 -0.832545 2.254830
-0.187506 -0.831813 2.252970
-0.193365 -0.830592 2.249960
-0.199469 -0.830103 2.248800
-0.205573 -0.830103 2.248800
-0.211676 -0.830592 2.249960
-0.218024 -0.831324 2.251810
-0.224128 -0.831568 2.252970
-0.230232 -0.831324 2.251810
-0.236091 -0.831324 2.251810
-0.242439 -0.831568 2.252970
-0.248787 -0.832301 2.254830
-0.254891 -0.832301 2.254830
-0.261238 -0.833033 2.256920
-0.267586 -0.834498 2.260860
-0.274911 -0.837916 2.269910
-0.282235 -0.841090 2.278950
-0.289315 -0.843776 2.285910
-0.296396 -0.846706 2.293800
-0.303964 -0.850368 2.303770
0.083010 -0.867946 2.333920
0.076418 -0.864284 2.323950
0.069826 -0.860622 2.313970
0.063234 -0.855739 2.300990
0.056642 -0.850124 2.285910
0.050294 -0.846461 2.275940
0.043947 -0.843776 2.268980
0.037843 -0.841578 2.262950
0.031495 -0.839381 2.256920
0.025391 -0.837428 2.251810
0.019288 -0.837184 2.250890
0.013184 -0.836451 2.248800
0.007080 -0.835231 2.245780
-0.004883 -0.833766 2.241840
-0.010987 -0.834254 2.242770
-0.016846 -0.835231 2.245780
-0.022950 -0.835963 2.247870
-0.029054 -0.836451 2.248800
-0.035157 -0.835963 2.247870
-0.078372 -0.842067 2.263880
-0.084475 -0.842067 2.263880
-0.090335 -0.840358 2.259930
-0.096438 -0.839381 2.256920
-0.102542 -0.838893 2.255990
-0.108402 -0.838160 2.253900
-0.114261 -0.836695 2.249960
-0.120365 -0.835719 2.246940
-0.150639 -0.835963 2.247870
-0.156987 -0.836695 2.249960
-0.163335 -0.838160 2.253900
-0.169439 -0.838893 2.255990
-0.175787 -0.839381 2.256920
-0.181646 -0.838649 2.254830
-0.187506 -0.837672 2.252970
-0.193365 -0.836695 2.249960
-0.199225 -0.835963 2.247870
-0.205329 -0.835963 2.247870
-0.211676 -0.836207 2.248800
-0.217780 -0.836695 2.249960
-0.223884 -0.836695 2.249960
-0.229987 -0.836695 2.249960
-0.236091 -0.836695 2.249960
-0.242195 -0.836940 2.250890
-0.248299 -0.837428 2.251810
-0.254646 -0.837672 2.252970
-0.260994 -0.838404 2.254830
-0.267586 -0.840358 2.259930
-0.274422 -0.842799 2.266890
-0.281503 -0.845485 2.273850
-0.288583 -0.848415 2.281970
-0.295663 -0.850612 2.288000
-0.303476 -0.855007 2.299830
0.083255 -0.874538 2.334850
0.076418 -0.869900 2.321860
0.069826 -0.866482 2.312810
0.063234 -0.861843 2.300990
0.056642 -0.855983 2.284980
0.050294 -0.851833 2.273850
0.043947 -0.848415 2.264800
0.037599 -0.846950 2.260860
0.031495 -0.844264 2.253900
0.025391 -0.842799 2.249960
0.019288 -0.842067 2.247870
-0.004883 -0.839381 2.240910
-0.010987 -0.840602 2.243930
-0.016846 -0.841334 2.245780
-0.022950 -0.842067 2.247870
-0.029054 -0.842555 2.248800
-0.078372 -0.848415 2.264800
-0.084475 -0.847682 2.262950
-0.090335 -0.845729 2.257840
-0.096438 -0.844997 2.255990
-0.102298 -0.844752 2.254830
-0.108402 -0.844264 2.253900
-0.114505 -0.843043 2.250890
-0.120121 -0.841334 2.245780
-0.150639 -0.842067 2.247870
-0.156743 -0.842311 2.248800
-0.163091 -0.843532 2.251810
-0.169439 -0.844264 2.253900
-0.175542 -0.844997 2.255990
-0.181646 -0.844997 2.255990
-0.187750 -0.844264 2.253900
-0.193365 -0.842311 2.248800
-0.198981 -0.840846 2.244860
-0.205084 -0.840846 2.244860
-0.211432 -0.841578 2.246940
-0.217536 -0.841823 2.247870
-0.223640 -0.842311 2.248800
-0.229743 -0.841823 2.247870
-0.235847 -0.842311 2.248800
-0.241951 -0.841823 2.247870
-0.248054 -0.842311 2.248800
-0.254402 -0.843043 2.250890
-0.260994 -0.844508 2.254830
-0.267342 -0.845973 2.258770
-0.274178 -0.847926 2.263880
-0.281014 -0.849635 2.268980
-0.288339 -0.853542 2.278950
-0.295419 -0.855983 2.285910
-0.303232 -0.860866 2.298900
0.083010 -0.880154 2.332990
0.076418 -0.874783 2.318850
0.069826 -0.871120 2.308870
0.063234 -0.866970 2.297970
0.056642 -0.861599 2.283820
0.050294 -0.857204 2.271990
0.043947 -0.853786 2.262950
0.037599 -0.851833 2.257840
0.031495 -0.850124 2.252970
0.025391 -0.848903 2.249960
0.019288 -0.847682 2.246940
-0.004883 -0.844997 2.239990
-0.010743 -0.845485 2.240910
-0.016846 -0.846706 2.243930
-0.022950 -0.847438 2.245780
-0.029054 -0.848415 2.248800
-0.078372 -0.854518 2.264800
-0.084475 -0.853786 2.262950
-0.090335 -0.852321 2.258770
-0.096438 -0.851588 2.256920
-0.102542 -0.851588 2.256920
-0.108646 -0.851588 2.256920
-0.114505 -0.849879 2.252970
-0.120365 -0.848415 2.248800
-0.126225 -0.846950 2.244860
-0.150639 -0.848170 2.247870
-0.156743 -0.847926 2.247870
-0.163091 -0.848903 2.249960
-0.169195 -0.849635 2.251810
-0.175298 -0.849879 2.252970
-0.181402 -0.849635 2.251810
-0.187262 -0.848659 2.249960
-0.193121 -0.847926 2.247870
-0.198981 -0.846950 2.244860
-0.205084 -0.846461 2.243930
-0.211188 -0.847194 2.245780
-0.217536 -0.847682 2.246940
-0.223395 -0.847682 2.246940
-0.229499 -0.846950 2.244860
-0.235359 -0.846950 2.244860
-0.241462 -0.846706 2.244860
-0.247810 -0.847926 2.247870
-0.254402 -0.849391 2.251810
-0.260994 -0.851344 2.256920
-0.267342 -0.852077 2.258770
-0.273934 -0.853298 2.261790
-0.280526 -0.854762 2.265960
-0.288095 -0.858913 2.276860
-0.295419 -0.862575 2.286840
-0.303720 -0.868191 2.301910
0.083255 -0.889431 2.340880
0.076418 -0.881619 2.319770
0.069826 -0.877224 2.308870
0.062990 -0.871364 2.292870
0.056398 -0.865505 2.277790
0.050050 -0.862575 2.269910
0.043947 -0.859890 2.262950
0.037599 -0.857936 2.257840
0.031495 -0.855983 2.252970
0.025391 -0.854518 2.248800
0.019288 -0.853053 2.244860
-0.004883 -0.852321 2.242770
-0.010987 -0.851833 2.241840
-0.016846 -0.851833 2.241840
-0.022950 -0.852321 2.242770
-0.029054 -0.853786 2.246940
-0.078372 -0.860866 2.265960
-0.084475 -0.860134 2.263880
-0.090335 -0.858669 2.259930
-0.096438 -0.857448 2.256920
-0.102542 -0.857936 2.257840
-0.108646 -0.857936 2.257840
-0.114505 -0.856716 2.254830
-0.120365 -0.854762 2.249960
-0.126225 -0.853298 2.245780
-0.150639 -0.853298 2.245780
-0.156743 -0.853786 2.246940
-0.162847 -0.854518 2.248800
-0.168950 -0.854762 2.249960
-0.175054 -0.854518 2.248800
-0.181158 -0.854762 2.249960
-0.187262 -0.854518 2.248800
-0.193365 -0.854518 2.248800
-0.199225 -0.853298 2.245780
-0.205084 -0.852809 2.244860
-0.211188 -0.852809 2.244860
-0.217292 -0.853298 2.245780
-0.223395 -0.852809 2.244860
-0.229255 -0.852077 2.242770
-0.235115 -0.852077 2.242770
-0.241462 -0.852809 2.244860
-0.247810 -0.854030 2.247870
-0.254402 -0.855495 2.251810
-0.260750 -0.856716 2.254830
-0.267342 -0.857692 2.257840
-0.273690 -0.858913 2.260860
-0.280282 -0.860378 2.264800
-0.287851 -0.864284 2.274780
-0.295419 -0.868435 2.285910
-0.303476 -0.873806 2.299830
-0.311045 -0.877468 2.309800
0.083255 -0.893582 2.334850
0.076418 -0.888455 2.321860
0.069582 -0.883084 2.307940
0.062990 -0.876247 2.289850
0.056398 -0.871364 2.276860
0.050050 -0.868923 2.270830
0.043947 -0.866726 2.264800
0.037599 -0.864528 2.258770
0.031495 -0.862575 2.253900
0.025391 -0.860866 2.249960
0.019288 -0.859890 2.246940
-0.004883 -0.858180 2.242770
-0.010743 -0.857448 2.240910
-0.016846 -0.857204 2.239990
-0.022950 -0.857936 2.241840
-0.078372 -0.866970 2.265960
-0.084475 -0.866726 2.264800
-0.090335 -0.864772 2.259930
-0.096438 -0.864040 2.257840
-0.102542 -0.863552 2.256920
-0.108646 -0.864772 2.259930
-0.114750 -0.863552 2.256920
-0.120609 -0.862087 2.252970
-0.126225 -0.859890 2.246940
-0.156499 -0.859401 2.245780
-0.162603 -0.859401 2.245780
-0.168950 -0.860134 2.247870
-0.175054 -0.860134 2.247870
-0.181158 -0.860622 2.248800
-0.187017 -0.859645 2.246940
-0.193121 -0.859645 2.246940
-0.198981 -0.858913 2.244860
-0.205084 -0.858669 2.243930
-0.210700 -0.857448 2.240910
-0.217048 -0.857692 2.241840
-0.235115 -0.857448 2.240910
-0.241462 -0.858913 2.244860
-0.248054 -0.860378 2.248800
-0.254402 -0.861110 2.250890
-0.260506 -0.861599 2.251810
-0.267098 -0.863063 2.255990
-0.273446 -0.864284 2.258770
-0.280282 -0.866482 2.264800
-0.287606 -0.869655 2.272920
-0.294931 -0.873074 2.281970
-0.302255 -0.876492 2.290780
-0.310068 -0.881375 2.303770
0.083499 -0.903592 2.344820
0.076418 -0.894803 2.321860
0.069582 -0.889431 2.307940
0.062990 -0.881375 2.286840
0.056398 -0.876980 2.275940
0.050050 -0.874294 2.268980
0.043947 -0.872829 2.264800
0.037599 -0.870388 2.258770
0.031495 -0.868679 2.253900
0.025391 -0.866726 2.248800
0.019288 -0.865993 2.246940
-0.004883 -0.864284 2.242770
-0.010743 -0.863552 2.240910
-0.016846 -0.863063 2.239990
-0.022950 -0.864284 2.242770
-0.078372 -0.872829 2.264800
-0.084475 -0.872829 2.264800
-0.090579 -0.871609 2.261790
-0.096438 -0.870876 2.259930
-0.102542 -0.870144 2.257840
-0.108646 -0.871120 2.260860
-0.114750 -0.870876 2.259930
-0.120609 -0.867702 2.251810
-0.126225 -0.865017 2.244860
-0.174810 -0.865017 2.244860
-0.180914 -0.865017 2.244860
-0.186773 -0.864528 2.243930
-0.192877 -0.864528 2.243930
-0.198981 -0.864528 2.243930
-0.204840 -0.864284 2.242770
-0.210700 -0.863552 2.240910
-0.216559 -0.862575 2.238830
-0.241707 -0.865261 2.245780
-0.247810 -0.865749 2.246940
-0.253914 -0.865993 2.247870
-0.260262 -0.866482 2.248800
-0.266854 -0.868435 2.253900
-0.273202 -0.869655 2.256920
-0.280038 -0.871853 2.262950
-0.287118 -0.874050 2.268980
-0.294443 -0.877957 2.278950
-0.301767 -0.881375 2.288000
-0.309336 -0.885281 2.297970
-0.317881 -0.891873 2.314900
0.083255 -0.907254 2.337860
0.076418 -0.900174 2.319770
0.069582 -0.894314 2.304930
0.062990 -0.888699 2.289850
0.056398 -0.883572 2.276860
0.050050 -0.880398 2.268980
0.043947 -0.877712 2.261790
0.037599 -0.875515 2.255990
0.031495 -0.874294 2.252970
0.025391 -0.873074 2.249960
0.019288 -0.872341 2.247870
0.007080 -0.871120 2.244860
0.000977 -0.870876 2.243930
-0.004883 -0.869900 2.241840
-0.010743 -0.869167 2.239990
-0.016846 -0.869167 2.239990
-0.022950 -0.870876 2.243930
-0.084475 -0.878933 2.264800
-0.090579 -0.877712 2.261790
-0.096438 -0.877224 2.260860
-0.102542 -0.876980 2.259930
-0.108890 -0.878933 2.264800
-0.114994 -0.877712 2.261790
-0.120609 -0.874538 2.253900
-0.126225 -0.870632 2.243930
-0.132084 -0.869655 2.240910
-0.174810 -0.871120 2.244860
-0.180670 -0.870388 2.242770
-0.186529 -0.869900 2.241840
-0.192633 -0.869411 2.240910
-0.198737 -0.870388 2.242770
-0.204840 -0.869411 2.240910
-0.210700 -0.869411 2.240910
-0.216559 -0.868679 2.238830
-0.222419 -0.867946 2.236970
-0.241707 -0.871364 2.245780
-0.247566 -0.871364 2.245780
-0.253670 -0.871364 2.245780
-0.260018 -0.872097 2.247870
-0.266610 -0.873806 2.251810
-0.273202 -0.875271 2.255990
-0.279794 -0.877224 2.260860
-0.286874 -0.879910 2.267820
-0.294198 -0.883816 2.277790
-0.301767 -0.887722 2.288000
-0.309336 -0.891629 2.297970
0.083010 -0.911893 2.333920
0.076174 -0.905301 2.316990
0.069582 -0.900662 2.304930
0.062990 -0.894314 2.288920
0.056398 -0.889676 2.276860
0.050050 -0.885769 2.266890
0.043703 -0.882595 2.258770
0.037599 -0.880398 2.252970
0.031495 -0.879177 2.249960
0.025391 -0.877957 2.246940
0.019288 -0.877224 2.244860
0.007080 -0.876003 2.241840
0.000977 -0.875515 2.240910
-0.004883 -0.875515 2.240910
-0.010743 -0.875271 2.239990
-0.016846 -0.875271 2.239990
-0.022950 -0.876492 2.242770
-0.096683 -0.883816 2.261790
-0.102786 -0.884548 2.263880
-0.108890 -0.885281 2.265960
-0.114994 -0.885037 2.264800
-0.120609 -0.881375 2.255990
-0.126225 -0.877957 2.246940
-0.144047 -0.875515 2.240910
-0.150151 -0.875515 2.240910
-0.156255 -0.876003 2.241840
-0.162603 -0.877224 2.244860
-0.168706 -0.877224 2.244860
-0.174566 -0.876736 2.243930
-0.180670 -0.876003 2.241840
-0.186529 -0.875515 2.240910
-0.192633 -0.876003 2.241840
-0.198737 -0.876247 2.242770
-0.204840 -0.876247 2.242770
-0.210944 -0.876003 2.241840
-0.216803 -0.875515 2.240910
-0.222907 -0.875027 2.239990
-0.253914 -0.877957 2.246940
-0.260262 -0.878933 2.249960
-0.266610 -0.879665 2.251810
-0.272958 -0.880642 2.253900
-0.279550 -0.882107 2.257840
-0.286630 -0.885281 2.265960
-0.294198 -0.889920 2.277790
-0.302011 -0.894559 2.289850
-0.309091 -0.897244 2.296810
0.083010 -0.917753 2.332990
0.076174 -0.911649 2.316990
0.069582 -0.906766 2.304930
0.062990 -0.901395 2.290780
0.056398 -0.896268 2.277790
0.050050 -0.892605 2.268980
0.043703 -0.888699 2.258770
0.037599 -0.886746 2.253900
0.031495 -0.885281 2.249960
0.025391 -0.884304 2.247870
0.019288 -0.883328 2.244860
0.007080 -0.882107 2.241840
0.000977 -0.881619 2.240910
-0.004883 -0.880886 2.238830
-0.010743 -0.881375 2.239990
-0.016846 -0.881619 2.240910
-0.022950 -0.881619 2.240910
-0.102786 -0.891140 2.264800
-0.114994 -0.891140 2.264800
-0.120609 -0.887478 2.255990
-0.126469 -0.884304 2.247870
-0.138432 -0.883084 2.244860
-0.144536 -0.883572 2.245780
-0.150639 -0.884304 2.247870
-0.156743 -0.884304 2.247870
-0.162847 -0.884060 2.246940
-0.168706 -0.883084 2.244860
-0.174810 -0.883084 2.244860
-0.180914 -0.883084 2.244860
-0.186773 -0.882351 2.242770
-0.192633 -0.881863 2.241840
-0.198737 -0.881863 2.241840
-0.204840 -0.881863 2.241840
-0.210944 -0.881863 2.241840
-0.216803 -0.881863 2.241840
-0.223151 -0.882839 2.243930
-0.229255 -0.882839 2.243930
-0.235359 -0.882839 2.243930
-0.253914 -0.883816 2.246940
-0.260262 -0.884793 2.248800
-0.266366 -0.885525 2.250890
-0.272713 -0.886258 2.252970
-0.279305 -0.887722 2.256920
-0.286630 -0.891385 2.265960
-0.293954 -0.895291 2.275940
-0.301767 -0.899930 2.288000
-0.308847 -0.902860 2.294960
0.083010 -0.924833 2.334850
0.076174 -0.918241 2.317920
0.069582 -0.912625 2.303770
0.062990 -0.907010 2.289850
0.056398 -0.902615 2.278950
0.050050 -0.899197 2.269910
0.043947 -0.896023 2.261790
0.037599 -0.893582 2.255990
0.031495 -0.891629 2.250890
0.025391 -0.890164 2.246940
0.019288 -0.887967 2.241840
0.007080 -0.886990 2.238830
0.000977 -0.886990 2.238830
-0.004883 -0.886013 2.236970
-0.010743 -0.886990 2.238830
-0.016846 -0.886990 2.238830
-0.022950 -0.887234 2.239990
-0.120609 -0.893582 2.255990
-0.126469 -0.890408 2.247870
-0.138432 -0.889676 2.245780
-0.144536 -0.889676 2.245780
-0.150639 -0.889920 2.246940
-0.156499 -0.889676 2.245780
-0.162603 -0.889676 2.245780
-0.168706 -0.889676 2.245780
-0.175054 -0.890408 2.247870
-0.181158 -0.890408 2.247870
-0.186773 -0.889187 2.244860
-0.192633 -0.887967 2.241840
-0.198492 -0.887234 2.239990
-0.204596 -0.887722 2.240910
-0.210700 -0.887234 2.239990
-0.217048 -0.888455 2.242770
-0.223151 -0.888699 2.243930
-0.253670 -0.889676 2.245780
-0.260018 -0.889920 2.246940
-0.266121 -0.890652 2.248800
-0.272469 -0.891629 2.250890
-0.279305 -0.893826 2.256920
-0.293466 -0.899441 2.270830
-0.301035 -0.903836 2.281970
-0.308603 -0.908231 2.292870
-0.317881 -0.917264 2.315830
0.083499 -0.934355 2.342970
0.076418 -0.925565 2.320930
0.069582 -0.918729 2.303770
0.062990 -0.912870 2.288920
0.056398 -0.908475 2.277790
0.050050 -0.905301 2.269910
0.043703 -0.901639 2.260860
0.037599 -0.899197 2.254830
0.031495 -0.897732 2.250890
0.025391 -0.896512 2.247870
0.019288 -0.894559 2.242770
0.013184 -0.893826 2.240910
0.007080 -0.892850 2.238830
0.000977 -0.892850 2.238830
-0.004883 -0.892117 2.236970
-0.010743 -0.892605 2.237900
-0.016846 -0.892605 2.237900
-0.022950 -0.893338 2.239990
-0.109134 -0.904813 2.268980
-0.120609 -0.899686 2.255990
-0.126469 -0.897244 2.249960
-0.138676 -0.896756 2.248800
-0.144536 -0.896756 2.248800
-0.150639 -0.896756 2.248800
-0.156743 -0.896512 2.247870
-0.162603 -0.895779 2.245780
-0.168706 -0.895291 2.244860
-0.174810 -0.896023 2.246940
-0.180914 -0.895779 2.245780
-0.186773 -0.894803 2.243930
-0.192633 -0.894070 2.241840
-0.198737 -0.893582 2.240910
-0.204596 -0.893582 2.240910
-0.210456 -0.892850 2.238830
-0.216803 -0.893338 2.239990
-0.222907 -0.894070 2.241840
-0.253182 -0.894070 2.241840
-0.259529 -0.894803 2.243930
-0.265877 -0.895535 2.245780
-0.272469 -0.897244 2.249960
-0.279061 -0.898709 2.253900
-0.292489 -0.903104 2.264800
-0.300302 -0.907987 2.276860
-0.307627 -0.911649 2.285910
-0.315195 -0.915555 2.295880
0.083499 -0.940703 2.342970
0.076418 -0.931425 2.319770
0.069582 -0.924589 2.302840
0.062990 -0.918973 2.288920
0.056398 -0.915311 2.279880
0.050050 -0.911405 2.269910
0.043947 -0.908475 2.262950
0.037599 -0.905301 2.254830
0.031495 -0.903836 2.250890
0.025391 -0.902615 2.247870
0.019288 -0.900174 2.241840
0.013184 -0.899441 2.239990
0.007080 -0.898221 2.236970
0.000977 -0.899441 2.239990
-0.004883 -0.898465 2.237900
-0.010743 -0.898221 2.236970
-0.016846 -0.897732 2.235810
-0.022950 -0.898221 2.236970
-0.120853 -0.907010 2.258770
-0.126713 -0.904569 2.252970
-0.132572 -0.903348 2.249960
-0.138676 -0.902860 2.248800
-0.144536 -0.902860 2.248800
-0.150639 -0.901639 2.245780
-0.156499 -0.901395 2.244860
-0.162603 -0.900906 2.243930
-0.168462 -0.900906 2.243930
-0.174810 -0.901639 2.245780
-0.180914 -0.901395 2.244860
-0.186773 -0.900418 2.242770
-0.192633 -0.900174 2.241840
-0.198737 -0.899686 2.240910
-0.204596 -0.899686 2.240910
-0.210456 -0.898953 2.238830
-0.216559 -0.898465 2.237900
-0.222663 -0.898465 2.237900
-0.228523 -0.898465 2.237900
-0.253182 -0.900174 2.241840
-0.259529 -0.900906 2.243930
-0.265877 -0.901639 2.245780
-0.272225 -0.902860 2.248800
-0.299570 -0.912137 2.271990
-0.307138 -0.916044 2.281970
-0.315683 -0.922880 2.298900
0.091311 -0.963652 2.383790
0.083499 -0.947050 2.342970
0.076418 -0.937773 2.319770
0.069338 -0.929716 2.299830
0.062746 -0.924100 2.285910
0.056398 -0.919950 2.275940
0.050050 -0.916776 2.267820
0.043703 -0.913358 2.259930
0.037599 -0.911161 2.253900
0.031495 -0.909940 2.250890
0.025391 -0.908719 2.247870
0.019288 -0.907010 2.243930
0.013184 -0.906522 2.242770
0.007080 -0.905301 2.239990
0.000977 -0.905789 2.240910
-0.004883 -0.904569 2.237900
-0.010743 -0.903836 2.235810
-0.121097 -0.914335 2.261790
-0.126713 -0.911893 2.255990
-0.132817 -0.910672 2.252970
-0.138676 -0.909452 2.249960
-0.144780 -0.909452 2.249960
-0.150639 -0.908231 2.246940
-0.156499 -0.907254 2.244860
-0.162603 -0.907254 2.244860
-0.168706 -0.907254 2.244860
-0.174810 -0.907743 2.245780
-0.180670 -0.907010 2.243930
-0.186773 -0.906522 2.242770
-0.192633 -0.906034 2.241840
-0.198737 -0.906034 2.241840
-0.204840 -0.906034 2.241840
-0.210456 -0.904813 2.238830
-0.216315 -0.903592 2.235810
-0.222175 -0.903348 2.234880
-0.228523 -0.904080 2.236970
-0.246590 -0.904080 2.236970
-0.253182 -0.906034 2.241840
-0.259774 -0.907254 2.244860
-0.265877 -0.907743 2.245780
-0.271981 -0.907743 2.245780
-0.278085 -0.908231 2.246940
-0.285165 -0.910916 2.253900
-0.292001 -0.913358 2.259930
-0.299570 -0.917753 2.270830
-0.306894 -0.921415 2.279880
-0.310312 -0.913358 2.259930
0.090335 -0.959014 2.356880
0.083499 -0.953398 2.342970
0.076418 -0.946074 2.324880
0.069582 -0.936552 2.301910
0.062746 -0.930448 2.286840
0.056398 -0.925565 2.274780
0.050050 -0.922391 2.266890
0.043703 -0.919462 2.259930
0.037599 -0.917020 2.253900
0.031495 -0.915799 2.250890
0.025391 -0.914335 2.246940
0.019288 -0.913114 2.243930
0.013184 -0.912137 2.241840
0.007080 -0.910916 2.238830
0.000977 -0.910916 2.238830
-0.004883 -0.909696 2.235810
-0.010743 -0.909452 2.234880
-0.121097 -0.921171 2.263880
-0.126713 -0.917997 2.255990
-0.132572 -0.915799 2.250890
-0.138676 -0.915067 2.248800
-0.144780 -0.915555 2.249960
-0.150639 -0.915067 2.248800
-0.156743 -0.914335 2.246940
-0.162603 -0.913846 2.245780
-0.168950 -0.914579 2.247870
-0.175054 -0.914579 2.247870
-0.180914 -0.913846 2.245780
-0.186773 -0.913114 2.243930
-0.192633 -0.912625 2.242770
-0.198737 -0.912625 2.242770
-0.205084 -0.913114 2.243930
-0.210700 -0.911405 2.239990
-0.216315 -0.910184 2.236970
-0.222175 -0.908963 2.233950
-0.246834 -0.910428 2.237900
-0.253426 -0.912625 2.242770
-0.259529 -0.912625 2.242770
-0.265877 -0.913846 2.245780
-0.271737 -0.913358 2.244860
-0.278329 -0.915067 2.248800
-0.284921 -0.916532 2.252970
-0.292245 -0.920194 2.261790
-0.299570 -0.924345 2.271990
-0.307382 -0.929228 2.283820
-0.313242 -0.928007 2.280810
0.083499 -0.959990 2.343890
0.076418 -0.952666 2.325800
0.069338 -0.941923 2.299830
0.062746 -0.935575 2.283820
0.056154 -0.929716 2.269910
0.050050 -0.926786 2.262950
0.043703 -0.923612 2.254830
0.037599 -0.922391 2.251810
0.031495 -0.920682 2.247870
0.025391 -0.920438 2.246940
0.019288 -0.919462 2.244860
0.013184 -0.918729 2.242770
0.007080 -0.917020 2.238830
0.000977 -0.916288 2.236970
-0.004883 -0.915067 2.233950
-0.010743 -0.915311 2.234880
-0.121097 -0.926786 2.262950
-0.126713 -0.923612 2.254830
-0.132572 -0.921903 2.250890
-0.138676 -0.921171 2.248800
-0.144780 -0.921659 2.249960
-0.150884 -0.921415 2.249960
-0.156743 -0.921171 2.248800
-0.162603 -0.919950 2.245780
-0.168706 -0.920194 2.246940
-0.175054 -0.920682 2.247870
-0.180914 -0.920682 2.247870
-0.186773 -0.918973 2.243930
-0.192633 -0.918729 2.242770
-0.198737 -0.917753 2.240910
-0.204840 -0.918241 2.241840
-0.210700 -0.917508 2.239990
-0.216559 -0.916532 2.237900
-0.222419 -0.916288 2.236970
-0.228523 -0.915799 2.235810
-0.234382 -0.915311 2.234880
-0.240486 -0.915799 2.235810
-0.246834 -0.916532 2.237900
-0.253182 -0.917753 2.240910
-0.259041 -0.917508 2.239990
-0.265633 -0.918973 2.243930
-0.271737 -0.919462 2.244860
-0.278573 -0.921415 2.249960
-0.284921 -0.922636 2.252970
-0.292245 -0.926298 2.261790
-0.299570 -0.930448 2.271990
-0.306894 -0.934111 2.280810
-0.313974 -0.936552 2.286840
0.083499 -0.968047 2.347840
0.076663 -0.960234 2.328820
0.069582 -0.950713 2.305860
0.062990 -0.943388 2.288000
0.056398 -0.937040 2.272920
0.050050 -0.933866 2.264800
0.043703 -0.930204 2.255990
0.037599 -0.929228 2.253900
0.031495 -0.926786 2.247870
0.025391 -0.926054 2.245780
0.019288 -0.924345 2.241840
0.013184 -0.923856 2.240910
0.007080 -0.923124 2.238830
0.000977 -0.922391 2.236970
-0.004883 -0.921415 2.234880
-0.010743 -0.921903 2.235810
-0.121097 -0.933378 2.263880
-0.126957 -0.930937 2.257840
-0.132572 -0.928495 2.251810
-0.138676 -0.928007 2.250890
-0.144536 -0.926786 2.247870
-0.150884 -0.927519 2.249960
-0.156743 -0.927274 2.248800
-0.162847 -0.926298 2.246940
-0.168706 -0.925565 2.244860
-0.174566 -0.925077 2.243930
-0.180670 -0.924833 2.242770
-0.186773 -0.924589 2.242770
-0.192633 -0.924345 2.241840
-0.198737 -0.924345 2.241840
-0.204596 -0.923856 2.240910
-0.210456 -0.923124 2.238830
-0.216559 -0.922636 2.237900
-0.222663 -0.922636 2.237900
-0.228523 -0.922636 2.237900
-0.234626 -0.922636 2.237900
-0.240730 -0.922636 2.237900
-0.247078 -0.923368 2.239990
-0.252937 -0.923368 2.239990
-0.259041 -0.923368 2.239990
-0.265389 -0.924589 2.242770
-0.272225 -0.926786 2.247870
-0.279305 -0.929960 2.255990
-0.285653 -0.931181 2.258770
-0.292734 -0.934599 2.266890
-0.299570 -0.936552 2.271990
-0.306894 -0.940458 2.280810
-0.313486 -0.941679 2.283820
0.083499 -0.972686 2.343890
0.076418 -0.964873 2.324880
0.069582 -0.958281 2.308870
0.062990 -0.951445 2.292870
0.056398 -0.945830 2.278950
0.050050 -0.941191 2.267820
0.043703 -0.936552 2.256920
0.031495 -0.932401 2.246940
0.025391 -0.931181 2.243930
0.019288 -0.929960 2.240910
0.013184 -0.929472 2.239990
0.007080 -0.929472 2.239990
0.000977 -0.928739 2.237900
-0.004883 -0.928251 2.236970
-0.010743 -0.928007 2.235810
-0.121342 -0.941679 2.268980
-0.127201 -0.938749 2.261790
-0.132817 -0.936064 2.255990
-0.138920 -0.934843 2.252970
-0.144536 -0.933378 2.248800
-0.150639 -0.932890 2.247870
-0.156743 -0.932401 2.246940
-0.162603 -0.931913 2.245780
-0.168462 -0.931181 2.243930
-0.174566 -0.930692 2.242770
-0.180670 -0.930692 2.242770
-0.186773 -0.930692 2.242770
-0.192633 -0.929960 2.240910
-0.198737 -0.929960 2.240910
-0.204596 -0.928983 2.238830
-0.210700 -0.929472 2.239990
-0.216559 -0.928983 2.238830
-0.222663 -0.928983 2.238830
-0.228767 -0.929472 2.239990
-0.234626 -0.928251 2.236970
-0.240486 -0.927763 2.235810
-0.246590 -0.928251 2.236970
-0.252693 -0.928251 2.236970
-0.259041 -0.928983 2.238830
-0.265145 -0.929472 2.239990
-0.271981 -0.932401 2.246940
-0.278817 -0.934599 2.251810
-0.285409 -0.936552 2.256920
-0.292245 -0.938994 2.262950
-0.299570 -0.942900 2.271990
-0.306894 -0.946562 2.280810
-0.314463 -0.950713 2.290780
0.083010 -0.974395 2.332990
0.076418 -0.970733 2.323950
0.069826 -0.966826 2.314900
0.063234 -0.960234 2.298900
0.056642 -0.953887 2.283820
0.050050 -0.948515 2.270830
0.043703 -0.943632 2.258770
0.031495 -0.938505 2.246940
0.025147 -0.936796 2.242770
0.019288 -0.936064 2.240910
0.013184 -0.935087 2.238830
0.007080 -0.936064 2.240910
0.000977 -0.935087 2.238830
-0.004883 -0.935087 2.238830
-0.121586 -0.949248 2.272920
-0.127201 -0.946074 2.264800
-0.133061 -0.943144 2.257840
-0.138920 -0.941923 2.254830
-0.144780 -0.940214 2.250890
-0.150639 -0.938994 2.247870
-0.156743 -0.938505 2.246940
-0.162603 -0.937284 2.243930
-0.168462 -0.936796 2.242770
-0.174566 -0.937284 2.243930
-0.180670 -0.936796 2.242770
-0.186773 -0.936796 2.242770
-0.192633 -0.936064 2.240910
-0.198737 -0.936308 2.241840
-0.204840 -0.936308 2.241840
-0.210700 -0.936064 2.240910
-0.216803 -0.936064 2.240910
-0.222663 -0.935087 2.238830
-0.229011 -0.936308 2.241840
-0.234870 -0.935575 2.239990
-0.240730 -0.935087 2.238830
-0.246834 -0.934843 2.237900
-0.252693 -0.934843 2.237900
-0.259041 -0.935575 2.239990
-0.265145 -0.935575 2.239990
-0.271737 -0.937284 2.243930
-0.278329 -0.938994 2.247870
-0.285165 -0.941923 2.254830
-0.292245 -0.944853 2.261790
-0.299570 -0.948515 2.270830
-0.306894 -0.952178 2.279880
-0.314219 -0.956084 2.288920
0.082766 -0.977325 2.324880
0.076418 -0.976104 2.321860
0.069826 -0.973174 2.314900
0.063234 -0.966338 2.298900
0.056642 -0.960234 2.283820
0.050050 -0.954131 2.269910
0.043703 -0.949736 2.258770
0.031251 -0.943632 2.244860
0.025147 -0.942412 2.241840
0.019288 -0.942167 2.240910
0.013184 -0.940703 2.237900
0.007080 -0.940703 2.237900
0.000977 -0.940458 2.236970
-0.004883 -0.940458 2.236970
-0.121830 -0.956816 2.275940
-0.127201 -0.952178 2.264800
-0.133061 -0.949248 2.257840
-0.138676 -0.946562 2.251810
-0.144780 -0.946562 2.251810
-0.150639 -0.945341 2.248800
-0.156743 -0.945341 2.248800
-0.162603 -0.944121 2.245780
-0.168706 -0.944121 2.245780
-0.174810 -0.944121 2.245780
-0.180914 -0.944121 2.245780
-0.186773 -0.942900 2.242770
-0.192633 -0.942900 2.242770
-0.198981 -0.943388 2.243930
-0.205084 -0.944121 2.245780
-0.210944 -0.943388 2.243930
-0.217048 -0.942900 2.242770
-0.222663 -0.941191 2.238830
-0.228767 -0.941191 2.238830
-0.234626 -0.940458 2.236970
-0.240486 -0.940458 2.236970
-0.246590 -0.940458 2.236970
-0.252937 -0.941191 2.238830
-0.259285 -0.941923 2.240910
-0.265145 -0.941679 2.239990
-0.271249 -0.942167 2.240910
-0.277596 -0.942900 2.242770
-0.284921 -0.946562 2.251810
-0.291757 -0.949736 2.258770
-0.299326 -0.954131 2.269910
-0.306406 -0.956816 2.275940
-0.313730 -0.960967 2.285910
-0.321787 -0.966094 2.297970
0.089358 -0.988311 2.335780
0.082766 -0.984893 2.327890
0.076418 -0.981964 2.320930
0.069826 -0.978057 2.311890
0.062990 -0.971465 2.295880
0.056642 -0.965117 2.280810
0.050050 -0.960723 2.270830
0.043703 -0.957060 2.261790
0.031495 -0.950713 2.246940
0.025391 -0.949736 2.244860
0.019288 -0.949004 2.242770
0.013184 -0.947295 2.238830
0.007080 -0.946318 2.236970
0.000977 -0.946074 2.235810
-0.004883 -0.946074 2.235810
-0.121830 -0.962432 2.274780
-0.127445 -0.958770 2.265960
-0.133061 -0.955351 2.257840
-0.138676 -0.952666 2.251810
-0.144780 -0.951933 2.249960
-0.150639 -0.951445 2.248800
-0.156743 -0.951933 2.249960
-0.162847 -0.951445 2.248800
-0.168706 -0.950713 2.246940
-0.174810 -0.949736 2.244860
-0.180670 -0.949248 2.243930
-0.186529 -0.948515 2.241840
-0.192633 -0.948515 2.241840
-0.198737 -0.949004 2.242770
-0.205084 -0.949736 2.244860
-0.210944 -0.949004 2.242770
-0.217048 -0.949248 2.243930
-0.222907 -0.948027 2.240910
-0.229011 -0.948515 2.241840
-0.234870 -0.947295 2.238830
-0.240730 -0.947295 2.238830
-0.247078 -0.947783 2.239990
-0.253182 -0.948027 2.240910
-0.259285 -0.948515 2.241840
-0.265145 -0.947783 2.239990
-0.271493 -0.948515 2.241840
-0.277840 -0.949492 2.243930
-0.285165 -0.953642 2.253900
-0.291757 -0.955351 2.257840
-0.299081 -0.959014 2.266890
-0.305673 -0.960723 2.270830
-0.312998 -0.964141 2.278950
-0.323252 -0.976836 2.308870
0.083255 -0.995880 2.338790
0.076418 -0.989532 2.323950
0.069582 -0.982208 2.306780
0.062990 -0.976348 2.292870
0.056398 -0.970244 2.278950
0.050050 -0.966582 2.269910
0.043703 -0.961455 2.257840
0.031251 -0.956328 2.245780
0.025391 -0.956328 2.245780
0.019288 -0.954131 2.240910
0.013184 -0.953398 2.238830
0.000977 -0.951201 2.233950
-0.004883 -0.951933 2.235810
-0.121830 -0.969024 2.275940
-0.127445 -0.966094 2.268980
-0.133305 -0.963164 2.261790
-0.138920 -0.960479 2.255990
-0.144780 -0.958770 2.251810
-0.150884 -0.958770 2.251810
-0.156987 -0.958770 2.251810
-0.163091 -0.959258 2.252970
-0.168950 -0.958037 2.249960
-0.174810 -0.956328 2.245780
-0.180425 -0.954131 2.240910
-0.186529 -0.954131 2.240910
-0.192633 -0.955107 2.242770
-0.198981 -0.955840 2.244860
-0.205084 -0.955351 2.243930
-0.210700 -0.954131 2.240910
-0.216803 -0.954131 2.240910
-0.222663 -0.953642 2.239990
-0.228767 -0.953642 2.239990
-0.234382 -0.951933 2.235810
-0.240486 -0.951933 2.235810
-0.246590 -0.952422 2.236970
-0.252937 -0.953398 2.238830
-0.259041 -0.953642 2.239990
-0.265145 -0.954131 2.240910
-0.271493 -0.955107 2.242770
-0.277840 -0.955840 2.244860
-0.284921 -0.959258 2.252970
-0.291757 -0.961943 2.258770
-0.299570 -0.967071 2.270830
-0.306650 -0.970000 2.277790
-0.314219 -0.974639 2.288920
-0.322520 -0.980987 2.303770
0.083499 -1.005160 2.345980
0.076418 -0.994415 2.320930
0.069338 -0.985382 2.299830
0.062990 -0.981231 2.289850
0.056398 -0.976836 2.279880
0.050050 -0.973418 2.271990
0.043703 -0.968291 2.259930
0.031495 -0.962676 2.246940
0.025391 -0.962676 2.246940
0.013184 -0.959258 2.238830
0.000977 -0.957305 2.233950
-0.004883 -0.957549 2.234880
-0.121830 -0.976592 2.278950
-0.127689 -0.973418 2.271990
-0.133305 -0.970000 2.263880
-0.139164 -0.968047 2.258770
-0.145024 -0.966094 2.254830
-0.151128 -0.966094 2.254830
-0.157231 -0.965850 2.253900
-0.163335 -0.966094 2.254830
-0.169195 -0.964385 2.250890
-0.175054 -0.963164 2.247870
-0.180425 -0.959746 2.239990
-0.186529 -0.960723 2.241840
-0.192633 -0.960723 2.241840
-0.198981 -0.961943 2.244860
-0.204596 -0.960234 2.240910
-0.210456 -0.959258 2.238830
-0.216803 -0.959746 2.239990
-0.222663 -0.959746 2.239990
-0.229011 -0.960234 2.240910
-0.234626 -0.958525 2.236970
-0.240730 -0.959014 2.237900
-0.246590 -0.958525 2.236970
-0.252693 -0.959014 2.237900
-0.258797 -0.958525 2.236970
-0.265145 -0.959502 2.238830
-0.271493 -0.961211 2.242770
-0.278085 -0.962920 2.246940
-0.284921 -0.965361 2.252970
-0.291513 -0.967071 2.256920
-0.299570 -0.973174 2.270830
-0.307382 -0.978790 2.283820
-0.314707 -0.982452 2.292870
-0.322031 -0.985870 2.300990
0.083499 -1.010770 2.343890
0.076174 -0.999542 2.317920
0.069338 -0.990753 2.297970
0.062990 -0.987091 2.288920
0.056398 -0.983184 2.279880
0.050294 -0.980010 2.272920
0.043703 -0.973662 2.257840
0.031251 -0.968535 2.245780
0.025391 -0.968047 2.244860
0.013184 -0.964629 2.236970
0.000977 -0.962920 2.232800
-0.004883 -0.963164 2.233950
-0.127689 -0.980010 2.272920
-0.133305 -0.976104 2.263880
-0.139164 -0.973662 2.257840
-0.145268 -0.973662 2.257840
-0.151128 -0.973174 2.256920
-0.157231 -0.971954 2.253900
-0.163335 -0.971954 2.253900
-0.169195 -0.971465 2.252970
-0.175298 -0.970489 2.250890
-0.180425 -0.966826 2.241840
-0.186529 -0.966338 2.240910
-0.192633 -0.966826 2.241840
-0.198981 -0.968535 2.245780
-0.205084 -0.967559 2.243930
-0.210944 -0.967071 2.242770
-0.217048 -0.967071 2.242770
-0.222907 -0.966338 2.240910
-0.228767 -0.965850 2.239990
-0.234626 -0.964629 2.236970
-0.240730 -0.965117 2.237900
-0.246345 -0.963652 2.234880
-0.252693 -0.964629 2.236970
-0.258553 -0.963652 2.234880
-0.265145 -0.965850 2.239990
-0.271493 -0.967071 2.242770
-0.278329 -0.969756 2.248800
-0.285165 -0.971954 2.253900
-0.292001 -0.974639 2.259930
-0.299814 -0.980499 2.273850
-0.307871 -0.986114 2.286840
-0.314951 -0.989288 2.293800
-0.321787 -0.991485 2.298900
0.083255 -1.014440 2.337860
0.076174 -1.005400 2.316990
0.069582 -0.998810 2.301910
0.062990 -0.993683 2.289850
0.056398 -0.989288 2.279880
0.050050 -0.985870 2.271990
0.043947 -0.981964 2.262950
0.025147 -0.973174 2.242770
0.013184 -0.970244 2.235810
0.000977 -0.968535 2.231870
-0.004883 -0.968535 2.231870
-0.127934 -0.987091 2.274780
-0.133305 -0.982696 2.264800
-0.139164 -0.980255 2.258770
-0.145024 -0.978790 2.255990
-0.151128 -0.978057 2.253900
-0.156987 -0.977569 2.252970
-0.163335 -0.978301 2.254830
-0.169439 -0.978301 2.254830
-0.175542 -0.978301 2.254830
-0.180914 -0.974883 2.246940
-0.187017 -0.974883 2.246940
-0.193121 -0.974395 2.245780
-0.199469 -0.976348 2.249960
-0.205573 -0.976348 2.249960
-0.211676 -0.976348 2.249960
-0.217536 -0.975860 2.248800
-0.223395 -0.974639 2.245780
-0.229011 -0.972686 2.241840
-0.234870 -0.971954 2.239990
-0.240974 -0.971954 2.239990
-0.246834 -0.971465 2.238830
-0.252937 -0.971465 2.238830
-0.258553 -0.970244 2.235810
-0.264901 -0.970977 2.237900
-0.271249 -0.972442 2.240910
-0.285409 -0.978790 2.255990
-0.292245 -0.981964 2.262950
-0.300546 -0.988556 2.277790
-0.308115 -0.993683 2.289850
-0.315195 -0.995880 2.294960
-0.322275 -0.998566 2.300990
0.083499 -1.023710 2.344820
0.076418 -1.015410 2.325800
0.069826 -1.009060 2.310960
0.062990 -1.001980 2.294960
0.056398 -0.994171 2.276860
0.050050 -0.989288 2.265960
0.043703 -0.985382 2.256920
0.025147 -0.978790 2.241840
0.013184 -0.974395 2.231870
-0.133549 -0.990265 2.267820
-0.139409 -0.988067 2.262950
-0.145268 -0.985382 2.256920
-0.151128 -0.984893 2.255990
-0.157231 -0.984405 2.254830
-0.163335 -0.984893 2.255990
-0.169439 -0.984893 2.255990
-0.175542 -0.984405 2.254830
-0.181158 -0.981964 2.248800
-0.187017 -0.980499 2.245780
-0.193121 -0.980499 2.245780
-0.199469 -0.982452 2.249960
-0.205573 -0.982696 2.250890
-0.211676 -0.982696 2.250890
-0.217780 -0.982452 2.249960
-0.223395 -0.980499 2.245780
-0.229011 -0.978545 2.240910
-0.234626 -0.976592 2.236970
-0.240730 -0.977081 2.237900
-0.246834 -0.977569 2.238830
-0.252937 -0.977569 2.238830
-0.258797 -0.977081 2.237900
-0.265145 -0.978057 2.239990
-0.271493 -0.979278 2.242770
-0.285165 -0.984649 2.254830
-0.292734 -0.989288 2.265960
-0.300790 -0.995636 2.279880
-0.308115 -0.999542 2.288920
-0.315439 -1.002960 2.296810
-0.323008 -1.007350 2.306780
0.083499 -1.031530 2.347840
0.076418 -1.022250 2.326960
0.069826 -1.016630 2.313970
0.063234 -1.010280 2.299830
0.056398 -1.001500 2.279880
0.050050 -0.994659 2.263880
0.043703 -0.991974 2.257840
0.025147 -0.983184 2.237900
-0.133793 -0.997589 2.270830
-0.139409 -0.994171 2.262950
-0.145268 -0.991485 2.256920
-0.151128 -0.990997 2.255990
-0.157231 -0.991485 2.256920
-0.163579 -0.991974 2.257840
-0.169439 -0.991485 2.256920
-0.175542 -0.990509 2.254830
-0.181158 -0.988556 2.249960
-0.187017 -0.987579 2.247870
-0.193121 -0.986602 2.245780
-0.199469 -0.988800 2.250890
-0.205817 -0.989776 2.252970
-0.217780 -0.989288 2.251810
-0.223640 -0.988067 2.248800
-0.229255 -0.985382 2.242770
-0.234626 -0.983184 2.237900
-0.240486 -0.982208 2.235810
-0.246590 -0.982696 2.236970
-0.252937 -0.983184 2.237900
-0.259041 -0.984161 2.239990
-0.265145 -0.983673 2.238830
-0.271493 -0.984893 2.241840
-0.285165 -0.990265 2.253900
-0.292489 -0.994659 2.263880
-0.300302 -1.000270 2.276860
