0.665304 -0.750511 2.007503
0.938993 -0.757998 2.007040
0.978237 -0.763279 2.025808
1.023468 -0.760866 2.025096
1.076189 -0.758967 2.026304
1.125247 -0.757514 2.026026
1.167314 -0.758409 2.017938
-1.106146 -0.741078 2.004250
-1.073671 -0.727955 2.012951
-1.034571 -0.726130 2.022079
0.346568 -0.706442 2.029093
0.358605 -0.724729 2.016904
0.544694 -0.748070 2.011990
0.663594 -0.747500 2.019180
0.945830 -0.740257 2.008970
0.951445 -0.734886 2.008970
1.159807 -0.742663 2.030310
-1.056917 -0.692567 2.020545
-1.034527 -0.681167 2.032518
0.329254 -0.670999 2.023947
0.383312 -0.659363 2.001160
-1.007535 -0.645283 2.042895
-0.989655 -0.627705 2.027415
0.296884 -0.614228 2.044321
0.325594 -0.623875 2.021198
0.365069 -0.628699 2.018358
-1.015660 -0.552019 2.002940
-0.974178 -0.561812 2.016679
-0.933201 -0.557190 2.022299
-0.896389 -0.554582 2.027875
0.294931 -0.596698 2.049790
0.323831 -0.581914 2.041123
0.356896 -0.595477 2.042932
-1.064058 -0.533280 2.018135
-1.015217 -0.521891 2.023533
-0.982466 -0.537628 2.029655
-0.928802 -0.539701 2.024191
-0.897122 -0.541805 2.021420
-1.058521 -0.482297 2.033593
-1.045280 -0.484309 2.007813
-1.055697 -0.443698 2.040210
0.621492 -0.417764 2.012968
-1.060297 -0.371414 2.033680
-1.049840 -0.371593 2.029850
0.743675 -0.398694 2.005960
-1.060316 -0.326689 2.035967
-1.048370 -0.302011 2.006890
-1.059223 -0.279116 2.030237
-1.047760 -0.271859 2.005840
0.688498 -0.284433 2.001780
0.664815 -0.235969 2.027880
-1.063325 -0.162481 2.015410
-1.171038 -0.107926 2.025026
-1.117547 -0.130904 2.020705
-1.083775 -0.136991 2.028780
0.633076 -0.106449 2.012920
-1.179264 -0.075447 2.024184
0.606708 -0.081545 2.006305
-1.220350 -0.010498 2.001640
-1.180699 -0.024728 2.023216
0.607929 -0.024415 2.000850
-1.222978 0.015992 2.001508
-1.181366 0.024761 2.026798
-1.205058 0.091006 2.004100
-1.182371 0.073097 2.024200
-1.207754 0.127500 2.009624
-1.184019 0.123846 2.020453
-1.205522 0.158777 2.005067
-1.184751 0.174322 2.022277
-1.182036 0.225743 2.025164
-1.181550 0.274515 2.025774
-1.122350 0.291513 2.049790
-1.181736 0.324841 2.026210
-1.181754 0.374240 2.024791
-1.140293 0.367626 2.044635
-0.819532 0.385363 2.047242
-1.183288 0.424719 2.026854
-0.821453 0.436258 2.046183
-1.183676 0.474983 2.025239
-0.822828 0.482241 2.046285
-1.182464 0.524688 2.028811
-1.130895 0.518327 2.049330
-0.823096 0.526542 2.045700
-1.179690 0.573329 2.028851
-1.127489 0.578207 2.047804
-1.067280 0.580286 2.048429
-1.049840 0.586444 2.046780
-0.973540 0.591144 2.048345
-0.824987 0.577930 2.045035
-1.179780 0.627100 2.031240
-1.139012 0.611652 2.049330
-1.074426 0.617834 2.048271
-0.948271 0.613056 2.047940
-0.822964 0.627002 2.044035
-1.177925 0.672567 2.032332
-1.130359 0.670454 2.045078
-1.070347 0.681417 2.048480
-1.012115 0.694430 2.047150
-0.929065 0.667664 2.049790
-0.873196 0.682394 2.048870
-0.821491 0.672656 2.041613
-0.794144 0.680685 2.030411
-1.175232 0.725316 2.033517
-1.121800 0.723502 2.045407
-1.072952 0.734798 2.046390
-1.025798 0.721880 2.047867
-0.969892 0.729745 2.045535
-0.930886 0.731383 2.046051
-0.867772 0.731747 2.047838
-0.826197 0.724055 2.039044
-0.795027 0.716331 2.022887
-1.172011 0.770869 2.025437
-1.125430 0.777980 2.033267
-1.074046 0.775075 2.034158
-1.023987 0.775682 2.034278
-0.976301 0.777138 2.037542
-0.924767 0.776115 2.036832
-0.875280 0.776199 2.038695
-0.828883 0.776119 2.036562
-1.168118 0.825011 2.022102
-1.117989 0.823075 2.024353
-1.071594 0.822556 2.022677
-1.026207 0.820975 2.021482
-0.975398 0.820560 2.021350
-0.927000 0.819875 2.025314
-0.875844 0.823822 2.037297
-0.831466 0.825269 2.035678
-1.301555 0.889797 2.025440
-1.251260 0.861599 2.023820
-1.169130 0.871853 2.018716
-1.126408 0.872748 2.019941
-1.065568 0.865208 2.016606
-1.019170 0.861993 2.007795
-0.982752 0.865824 2.020658
-0.920804 0.876103 2.034744
-0.876539 0.872207 2.035908
-0.833393 0.873061 2.034961
-1.117467 0.925647 2.024510
-1.081580 0.908231 2.006890
-1.010932 0.941704 2.034834
-0.974008 0.929531 2.034797
-0.919190 0.926433 2.031250
-0.870686 0.924544 2.030236
-0.834153 0.917961 2.033497
-1.172890 0.969756 2.012920
-1.129180 0.987823 2.007810
-1.016305 0.972711 2.026736
-0.975898 0.973720 2.033455
-0.924948 0.971554 2.029975
-0.873698 0.968997 2.028229
-0.836940 0.972663 2.027992
-1.127480 1.040310 2.044000
-1.072162 1.024119 2.027065
-1.022318 1.028363 2.036120
-0.974647 1.023322 2.031781
-0.924320 1.027131 2.033096
-0.870562 1.021383 2.031729
-0.832597 1.022990 2.027528
-1.181336 1.093200 2.021870
-1.123024 1.072898 2.024567
-1.075276 1.068147 2.031796
-1.020282 1.069926 2.027400
-0.975062 1.077979 2.030961
-0.929402 1.081054 2.024231
-0.872866 1.075167 2.035137
-0.831065 1.072023 2.024309
-1.204993 1.127782 2.018658
-1.186020 1.131485 2.016956
-1.135695 1.122267 2.036420
-1.081976 1.128187 2.024430
-1.029684 1.119486 2.032061
-0.978871 1.120334 2.028377
-0.927057 1.124546 2.020156
-0.866319 1.125480 2.018212
-0.830860 1.124203 2.029037
-1.209507 1.167212 2.036633
-1.188086 1.162984 2.022019
-1.116407 1.179073 2.038893
-1.078160 1.165378 2.025675
-1.018494 1.164584 2.039850
-0.968983 1.177933 2.026058
-0.913907 1.172947 2.029848
-0.879025 1.170690 2.025904
-0.830517 1.170689 2.032276
-0.648213 1.168980 2.009900
-0.284677 1.168250 2.022890
0.798120 1.192660 2.039820
0.807886 1.199010 2.049790
1.036410 1.195590 2.013840
1.068390 1.194740 2.029850
-1.209020 1.201210 2.049790
0.908231 1.204630 2.048870
0.965606 1.205360 2.042840
1.041900 1.211710 2.042370
1.164340 1.217810 2.041910
1.234535 1.221720 2.026950
1.254070 1.221105 2.020335
1.304970 1.225870 2.008970
1.391275 1.242595 2.034950
1.451700 1.241000 2.016860
1.514940 1.242470 2.023820
1.391400 1.251010 2.044920
1.423140 1.252970 2.037970
1.473190 1.271280 2.042840
1.514940 1.264200 2.040980
-0.905382 -1.119500 2.084196
-0.896573 -1.120093 2.059942
-0.916227 -1.060888 2.093167
-0.879910 -1.077993 2.060233
-0.841823 -1.092560 2.096410
-0.778710 -1.067050 2.062435
-0.957657 -1.016945 2.080991
-0.931274 -1.031833 2.083480
-0.821193 -1.031890 2.078440
-0.793725 -1.019320 2.084280
-0.960071 -0.994252 2.055203
-0.924833 -0.970488 2.075540
-0.860988 -0.981842 2.087945
-0.828242 -0.972289 2.077134
-0.782189 -0.965850 2.080062
-1.072790 -0.929960 2.057910
-0.910062 -0.934111 2.069390
-0.889298 -0.912936 2.077078
-1.017030 -0.869175 2.060006
-0.997426 -0.855658 2.055203
-0.931791 -0.853176 2.097920
-0.876382 -0.873915 2.077490
-0.807459 -0.866848 2.091370
-0.797449 -0.856776 2.084642
-1.211220 -0.807398 2.056980
-1.020348 -0.825348 2.058844
-0.963701 -0.809205 2.084120
-0.921386 -0.837027 2.081050
-0.886556 -0.841850 2.075073
-0.806543 -0.839015 2.090385
-1.017388 -0.775869 2.060561
-0.978941 -0.767241 2.067604
-0.946074 -0.798853 2.060930
-0.870998 -0.753075 2.096415
-0.799341 -0.752464 2.096880
0.572527 -0.763939 2.062315
0.986871 -0.758299 2.056612
1.026476 -0.757980 2.071111
1.078451 -0.756244 2.070038
1.125445 -0.755510 2.067457
1.166050 -0.751488 2.052810
-1.015771 -0.725106 2.058606
-0.986675 -0.726473 2.076372
-0.872341 -0.746117 2.092930
0.337656 -0.708640 2.067477
0.351329 -0.726096 2.057910
1.139684 -0.746654 2.055452
1.172190 -0.746709 2.059867
-1.014446 -0.676900 2.055625
-0.986807 -0.672715 2.074611
-0.901883 -0.661885 2.096880
0.293548 -0.653747 2.079557
0.313392 -0.676102 2.068743
-1.001985 -0.641011 2.052460
-0.982092 -0.635710 2.079006
-0.945463 -0.602069 2.086325
0.284016 -0.621831 2.072708
0.301157 -0.644917 2.054430
0.370739 -0.609027 2.055360
-0.919573 -0.571773 2.078511
-0.897244 -0.555559 2.094905
0.276376 -0.572515 2.070311
0.322467 -0.561541 2.058790
0.356639 -0.581591 2.065797
-1.056308 -0.502274 2.062148
-1.017550 -0.511879 2.065101
-0.973210 -0.522071 2.069048
-0.921318 -0.523168 2.077324
-0.888028 -0.522007 2.086569
-0.813074 -0.513687 2.098910
0.243248 -0.518866 2.091630
0.275201 -0.524636 2.081079
0.316094 -0.532731 2.073013
-1.061893 -0.475386 2.076044
-1.032091 -0.492498 2.083730
-0.972930 -0.489314 2.085075
-0.923317 -0.496854 2.086881
-0.887356 -0.496963 2.099430
0.238311 -0.481860 2.095518
0.264540 -0.489623 2.093480
-1.066637 -0.427225 2.079747
-1.031566 -0.417982 2.094308
-0.979327 -0.430287 2.094280
-0.916776 -0.413709 2.095370
-0.819686 -0.403984 2.099277
0.624327 -0.431980 2.082573
-1.059836 -0.370316 2.074309
-1.029782 -0.373895 2.096381
-0.952910 -0.372082 2.099890
-0.934029 -0.364228 2.098272
-0.815455 -0.399915 2.097810
-1.062514 -0.324820 2.079358
-1.040541 -0.330367 2.095306
-0.971905 -0.347032 2.098874
-0.924149 -0.321982 2.099706
-0.821497 -0.329173 2.098910
0.853460 -0.338633 2.093243
-1.065735 -0.275615 2.081811
-1.026992 -0.271915 2.095506
-0.988094 -0.279143 2.098013
-0.921740 -0.284107 2.098655
-0.819595 -0.271424 2.095227
-1.070710 -0.225390 2.084415
-1.035692 -0.231563 2.096902
-0.984942 -0.219123 2.098178
-0.936125 -0.218513 2.098215
-0.884304 -0.201666 2.099890
-0.821642 -0.224387 2.091978
-1.075254 -0.173718 2.090518
-1.015640 -0.169135 2.096576
-0.972756 -0.173757 2.097693
-0.927698 -0.160975 2.097760
-0.819378 -0.174566 2.091180
-0.013062 -0.151616 2.098850
-1.163893 -0.109481 2.078713
-1.126705 -0.117435 2.083667
-1.077267 -0.126510 2.091086
-1.027272 -0.124209 2.094068
-0.973870 -0.121835 2.096182
-0.935639 -0.128015 2.095675
-0.867214 -0.139164 2.099890
-0.820955 -0.126024 2.088740
-0.016935 -0.123816 2.089392
0.007736 -0.118046 2.097734
-1.168543 -0.075416 2.075719
-1.126041 -0.076514 2.090436
-1.075605 -0.076669 2.093087
-1.026170 -0.080176 2.095175
-0.972644 -0.074709 2.096899
-0.928832 -0.074386 2.098220
-0.878063 -0.066047 2.096767
-0.824196 -0.074991 2.088215
-0.017557 -0.073901 2.087565
0.020260 -0.070866 2.086749
0.052370 -0.057253 2.096880
-1.169854 -0.025455 2.075451
-1.126143 -0.024485 2.089725
-1.076136 -0.025883 2.092594
-1.029024 -0.020086 2.096026
-0.972420 -0.027964 2.096949
-0.921616 -0.023939 2.096626
-0.875396 -0.019841 2.096930
-0.826806 -0.024727 2.085574
-0.020294 -0.027454 2.085101
0.023095 -0.026130 2.081948
0.060402 -0.027515 2.096764
-1.169578 0.025260 2.075509
-1.123193 0.024556 2.084237
-1.074276 0.025114 2.091379
-1.026942 0.026246 2.097088
-0.974078 0.025534 2.097435
-0.925385 0.028269 2.095285
-0.875741 0.024464 2.094346
-0.823286 0.025581 2.080793
-0.016135 0.019776 2.088397
0.018099 0.017122 2.082578
0.054445 0.016138 2.089295
-1.168951 0.075761 2.071870
-1.127253 0.076183 2.083412
-1.074614 0.075198 2.085751
-1.026161 0.076444 2.093489
-0.972617 0.075881 2.091556
-0.925276 0.076715 2.092001
-0.875170 0.075903 2.092294
-0.824089 0.075434 2.076542
-1.169882 0.126421 2.072762
-1.124269 0.126280 2.078190
-1.077028 0.126887 2.090264
-1.025205 0.127683 2.091234
-0.975273 0.126268 2.088731
-0.925050 0.126695 2.089241
-0.874257 0.126342 2.088079
-0.824908 0.125931 2.076275
-1.171143 0.176244 2.072756
-1.126321 0.176594 2.080729
-1.073888 0.175741 2.084232
-1.025775 0.177598 2.087751
-0.975089 0.176444 2.086460
-0.925214 0.176787 2.086071
-0.874630 0.177572 2.086689
-0.825156 0.175542 2.072405
-1.168742 0.226840 2.064688
-1.125162 0.225292 2.078189
-1.073997 0.224423 2.081402
-1.023462 0.223749 2.082024
-0.973929 0.225013 2.081957
-0.925099 0.225674 2.084062
-0.875479 0.224398 2.082216
-0.827141 0.226667 2.071054
-1.167634 0.275769 2.064484
-1.125349 0.274612 2.071560
-1.075298 0.274088 2.073931
-1.023807 0.272538 2.079149
-0.974524 0.274093 2.082746
-0.925294 0.274081 2.082210
-0.875647 0.273286 2.080794
-0.826533 0.275087 2.068964
-1.166707 0.323769 2.061595
-1.125678 0.324338 2.073856
-1.074746 0.324437 2.077074
-1.026494 0.325387 2.078831
-0.974910 0.323991 2.081006
-0.924700 0.324124 2.079454
-0.875158 0.324169 2.080450
-0.825829 0.323916 2.066516
-1.168644 0.375067 2.060283
-1.127322 0.373267 2.069796
-1.074816 0.376678 2.070351
-1.022865 0.375390 2.075943
-0.972934 0.373158 2.076049
-0.925166 0.373394 2.077176
-0.876684 0.374845 2.076388
-0.827608 0.370861 2.064698
-1.165145 0.425628 2.061535
-1.124884 0.426071 2.067599
-1.075121 0.424721 2.064673
-1.025440 0.422946 2.070282
-0.974978 0.424152 2.072988
-0.926314 0.425266 2.074168
-0.874447 0.423963 2.073165
-0.828964 0.423898 2.064778
-1.166735 0.473901 2.056833
-1.125068 0.475748 2.061457
-1.075897 0.473738 2.066862
-1.024953 0.474871 2.066852
-0.973831 0.473910 2.069605
-0.923704 0.474420 2.070683
-0.875979 0.475848 2.071721
-0.832545 0.473757 2.069387
-1.167209 0.523630 2.058426
-1.123429 0.526547 2.059668
-1.074032 0.524183 2.059914
-1.025034 0.522799 2.063537
-0.976079 0.524089 2.065969
-0.927128 0.523996 2.066491
-0.876358 0.525984 2.070001
-0.829704 0.523376 2.064695
-1.167088 0.576838 2.054867
-1.125154 0.573170 2.056364
-1.076508 0.571418 2.057231
-1.023758 0.573527 2.059892
-0.974363 0.572671 2.063297
-0.924619 0.573409 2.063788
-0.875412 0.573738 2.064873
-0.831099 0.575412 2.063009
-1.164303 0.622134 2.056348
-1.123856 0.625576 2.058863
-1.075312 0.625860 2.061579
-1.024198 0.623801 2.060668
-0.974175 0.625390 2.059861
-0.926539 0.624223 2.059264
-0.876404 0.622228 2.063245
-0.824472 0.625169 2.059280
-1.168895 0.683529 2.055801
-1.123469 0.676824 2.059306
-1.073144 0.674857 2.058802
-1.024524 0.672993 2.059486
-0.975599 0.675500 2.060977
-0.924530 0.676135 2.058715
-0.875172 0.674754 2.059535
-0.823931 0.674360 2.061020
-0.799219 0.677755 2.053855
-1.162309 0.724469 2.056828
-1.124361 0.721675 2.057679
-1.074051 0.720596 2.056387
-1.023070 0.726943 2.058119
-0.978483 0.719605 2.055901
-0.923475 0.722039 2.057312
-0.875527 0.724514 2.056998
-0.817896 0.725711 2.061879
-1.159654 0.754125 2.056242
-1.127664 0.758324 2.052897
-1.067624 0.761306 2.054034
-1.033587 0.755964 2.054894
-0.983007 0.756726 2.056625
-0.915178 0.755283 2.056899
-0.878384 0.755913 2.053678
-0.819849 0.769473 2.060930
-1.201700 0.817652 2.071830
-1.183630 0.832057 2.065335
-1.111762 0.829127 2.059431
-1.089023 0.822169 2.058435
-1.029820 0.842067 2.062780
-0.977162 0.822738 2.059883
-0.903836 0.845973 2.053970
-0.868679 0.833196 2.052190
-0.827278 0.830173 2.067192
-1.159460 0.874294 2.055820
-1.122590 0.851100 2.091780
-0.959868 0.897549 2.055825
-0.924399 0.871337 2.058116
-0.878949 0.875124 2.057277
-0.830714 0.881954 2.061941
-0.975190 0.926465 2.062564
-0.932208 0.926888 2.066773
-0.875320 0.921488 2.056101
-0.835414 0.929289 2.073373
-1.014801 0.984991 2.066795
-0.976270 0.978101 2.067504
-0.923938 0.979665 2.061235
-0.872585 0.975982 2.059420
-0.837044 0.972163 2.067801
-1.109160 1.043980 2.067890
-1.057610 1.031852 2.059885
-1.019899 1.021592 2.066925
-0.971177 1.027952 2.065080
-0.923510 1.022767 2.068088
-0.876504 1.025800 2.065879
-0.843287 1.029163 2.073720
-1.165320 1.099890 2.071830
-1.119053 1.069572 2.075867
-1.069967 1.069897 2.071376
-1.031359 1.077248 2.074897
-0.976087 1.074409 2.072533
-0.918661 1.072652 2.077074
-0.876644 1.068483 2.063101
-0.843125 1.080463 2.077422
-1.212440 1.137422 2.081918
-1.176713 1.131571 2.066313
-1.141393 1.145137 2.091470
-1.077182 1.109733 2.079058
-1.022766 1.119297 2.072510
-0.976925 1.123169 2.065881
-0.925809 1.123325 2.071174
-0.879367 1.124492 2.071311
-0.834498 1.116670 2.074613
-1.207070 1.199260 2.058840
-1.186643 1.153600 2.078863
-1.126255 1.173255 2.062435
-1.074954 1.175360 2.073712
-1.037793 1.169550 2.066260
-0.979278 1.165197 2.070243
-0.922758 1.173619 2.071131
-0.875369 1.170836 2.074287
-0.835097 1.173465 2.066346
-0.643696 1.196325 2.058490
-0.583758 1.194620 2.058840
-0.501236 1.199500 2.070900
-0.258065 1.197300 2.073920
0.176031 1.199990 2.079950
0.581317 1.197060 2.062780
0.612568 1.192180 2.052810
0.663350 1.191690 2.069970
1.158480 1.195100 2.098970
1.496380 1.195100 2.091780
-1.205115 1.202915 2.060345
-1.162755 1.210485 2.089920
-1.124668 1.223060 2.078147
-1.093050 1.208040 2.097810
-1.025420 1.214800 2.085513
-0.988799 1.213420 2.065330
-0.929065 1.210487 2.075617
-0.879055 1.218295 2.076815
-0.820663 1.207633 2.078863
-0.797241 1.212244 2.089872
-0.711936 1.204260 2.072875
-0.687643 1.211460 2.087370
-0.611713 1.205605 2.076350
-0.574236 1.214313 2.093553
-0.518205 1.205850 2.081335
-0.417127 1.209145 2.090845
-0.375011 1.210730 2.094790
-0.238044 1.210240 2.096880
-0.112552 1.209020 2.095950
-0.038331 1.200230 2.080870
0.114505 1.207310 2.092930
0.154546 1.209270 2.095950
0.268929 1.210975 2.097345
0.649678 1.208780 2.079950
0.667867 1.207008 2.078090
0.737450 1.211342 2.080642
0.827499 1.217483 2.084507
0.869818 1.222367 2.085280
0.901151 1.218050 2.073920
0.964751 1.227575 2.094440
1.045200 1.220740 2.081800
1.072666 1.226381 2.088852
1.123650 1.238237 2.084583
1.184301 1.228371 2.082410
1.231942 1.227606 2.076495
1.277630 1.226110 2.068930
1.303510 1.221720 2.092930
1.371133 1.243447 2.076853
1.413130 1.228310 2.060307
1.216830 1.253940 2.098970
1.272135 1.252970 2.089920
1.335730 1.260050 2.066960
1.372050 1.258463 2.082667
1.464206 1.274062 2.088714
1.559860 1.251625 2.092935
-0.914090 -1.166300 2.149990
-0.910754 -1.121657 2.121928
-0.877794 -1.110018 2.126065
-0.820419 -1.109653 2.113927
-0.919218 -1.075849 2.140061
-0.872474 -1.075005 2.128507
-0.827732 -1.079380 2.137037
-0.954619 -1.011260 2.131900
-0.926547 -1.023394 2.122622
-0.873248 -1.020329 2.128454
-0.822577 -1.022259 2.128975
-0.793823 -1.030058 2.109078
0.510025 -1.021030 2.110790
-0.916389 -0.981467 2.128084
-0.874416 -0.973632 2.131023
-0.822226 -0.973260 2.127568
-0.795190 -0.971709 2.113716
-0.905423 -0.938444 2.120710
-0.873647 -0.923819 2.127686
-0.826459 -0.919944 2.130356
-0.796338 -0.922636 2.122856
-0.929472 -0.851771 2.112882
-0.870205 -0.871129 2.124520
-0.825190 -0.875423 2.121561
-0.796981 -0.867173 2.117715
-0.958483 -0.816824 2.121313
-0.925036 -0.824777 2.123024
-0.878452 -0.825144 2.133236
-0.823229 -0.825298 2.126801
-0.796460 -0.835231 2.126960
-0.966482 -0.774509 2.125543
-0.923866 -0.774457 2.127319
-0.875183 -0.776158 2.127560
-0.824322 -0.776336 2.127919
-0.798364 -0.782372 2.124365
1.138460 -0.761254 2.101980
-0.970338 -0.724588 2.119751
-0.926385 -0.725381 2.123515
-0.873138 -0.725570 2.123924
-0.820883 -0.725722 2.123009
-0.963945 -0.677401 2.114660
-0.924894 -0.675587 2.123221
-0.876479 -0.676293 2.129387
-0.824615 -0.677527 2.123374
-0.798609 -0.679464 2.119375
0.297617 -0.670675 2.108940
0.307382 -0.685080 2.136770
-0.966481 -0.633693 2.117340
-0.925609 -0.624010 2.123831
-0.874036 -0.625525 2.124264
-0.822688 -0.624963 2.121212
0.270627 -0.621956 2.111723
-0.919453 -0.585066 2.120279
-0.875946 -0.575131 2.120656
-0.823466 -0.574884 2.116369
-0.799585 -0.580828 2.115900
0.243241 -0.563720 2.125739
0.253635 -0.587734 2.113643
-1.012730 -0.501480 2.114970
-0.946623 -0.526689 2.103140
-0.867435 -0.524491 2.107647
-0.823485 -0.524306 2.115526
0.229652 -0.522558 2.122526
0.315494 -0.512331 2.114814
1.340617 -0.544776 2.139867
-1.056072 -0.465215 2.109493
-1.024219 -0.475785 2.110244
-0.975467 -0.473612 2.113886
-0.925269 -0.475743 2.118704
-0.876276 -0.475469 2.125121
-0.823361 -0.476076 2.116240
0.194006 -0.460189 2.139294
0.221002 -0.469292 2.114054
0.273137 -0.472714 2.115479
0.301279 -0.493912 2.130970
-1.061487 -0.426702 2.108455
-1.022942 -0.423987 2.112420
-0.973133 -0.424444 2.112291
-0.924788 -0.426390 2.114162
-0.874836 -0.424757 2.121988
-0.824784 -0.427988 2.121845
0.185853 -0.421939 2.134646
0.223549 -0.427012 2.126547
0.257989 -0.438077 2.137771
-1.058769 -0.383456 2.111312
-1.021443 -0.374260 2.109790
-0.975078 -0.374605 2.111630
-0.924932 -0.377001 2.117723
-0.875353 -0.374698 2.120985
-0.824799 -0.374984 2.115360
0.143101 -0.359416 2.145150
0.176664 -0.373701 2.137876
0.210597 -0.385189 2.143887
-1.059494 -0.333173 2.112249
-1.023765 -0.324108 2.109792
-0.975893 -0.324806 2.109500
-0.924348 -0.325443 2.115316
-0.873956 -0.323594 2.120499
-0.826619 -0.325709 2.116291
0.140193 -0.338965 2.146313
0.170640 -0.335633 2.144712
0.859645 -0.346446 2.117980
-1.059440 -0.270044 2.108056
-1.021766 -0.279387 2.105846
-0.974843 -0.275965 2.108098
-0.924130 -0.274867 2.109349
-0.875177 -0.274377 2.117656
-0.824873 -0.277916 2.115020
0.866970 -0.270516 2.135920
-1.072475 -0.214295 2.104554
-1.022343 -0.220983 2.105633
-0.975630 -0.227187 2.107273
-0.924459 -0.225551 2.109702
-0.873673 -0.225652 2.112133
-0.826553 -0.224323 2.115128
0.858059 -0.245735 2.113810
-1.058869 -0.171636 2.103880
-1.032383 -0.177502 2.105461
-0.978562 -0.173725 2.105074
-0.924920 -0.177095 2.107769
-0.874215 -0.174066 2.110551
-0.828488 -0.173697 2.113230
-0.051515 -0.155034 2.146980
-0.022931 -0.171411 2.118912
0.015108 -0.165374 2.121778
-1.112218 -0.108320 2.102948
-1.082430 -0.125248 2.101400
-1.018984 -0.127754 2.102262
-0.977081 -0.132073 2.102445
-0.921371 -0.123378 2.109138
-0.874585 -0.124676 2.108300
-0.832994 -0.124535 2.108752
-0.053420 -0.121537 2.132689
-0.039613 -0.125370 2.113577
0.027979 -0.125019 2.110923
0.057078 -0.115255 2.135777
-1.126015 -0.079836 2.101400
-1.069857 -0.075035 2.101593
-1.019743 -0.067925 2.103337
-0.976836 -0.080524 2.102551
-0.920735 -0.078395 2.103500
-0.873457 -0.080704 2.105594
-0.828011 -0.077238 2.113248
-0.053082 -0.075788 2.133736
-0.037344 -0.079847 2.112852
0.038279 -0.088294 2.106389
0.063297 -0.073528 2.122203
-1.129670 -0.044679 2.101207
-1.061800 -0.025635 2.100820
-1.022265 -0.035580 2.103056
-0.980987 -0.019979 2.102386
-0.929675 -0.029959 2.102493
-0.874726 -0.035182 2.102321
-0.826160 -0.027664 2.118448
-0.053835 -0.026137 2.126063
-0.041959 -0.018590 2.110463
0.046876 -0.005860 2.105345
0.070488 -0.023906 2.114689
-1.022827 0.021601 2.101553
-0.977618 0.024049 2.101760
-0.925490 0.011212 2.102195
-0.858459 0.028426 2.102047
-0.828741 0.024069 2.124536
-0.053387 0.004395 2.145973
-0.028217 0.017335 2.113122
0.033898 0.031808 2.114143
0.073814 0.014370 2.126256
-1.011964 0.077792 2.101749
-0.990753 0.059328 2.102330
-0.915148 0.072512 2.101207
-0.822138 0.074496 2.129348
-1.050570 0.124760 2.101400
-1.017360 0.104984 2.103840
-0.821802 0.106042 2.128577
-0.821070 0.179489 2.112187
-0.825464 0.206305 2.123435
-0.824732 0.292978 2.106850
-0.822291 0.320566 2.100820
-0.825220 0.381481 2.108360
-0.829046 0.468764 2.103527
-0.829697 0.537370 2.104840
0.491996 0.513631 2.140358
0.518537 0.515514 2.136699
-0.829615 0.580096 2.104420
-0.824732 0.603290 2.105805
0.517613 0.631085 2.143124
0.516088 0.676779 2.140675
-0.852565 0.994903 2.117980
-0.848659 0.996124 2.107780
-1.032177 1.033967 2.104223
-0.950468 1.046420 2.105000
-0.911039 1.036045 2.111835
-0.851344 1.023470 2.127960
-0.847682 1.038485 2.109400
-1.127720 1.067420 2.101980
-1.090362 1.084796 2.107040
-0.956572 1.093540 2.109250
-0.932462 1.076387 2.108938
-0.854518 1.077009 2.131303
-0.849879 1.066440 2.105000
-1.151400 1.149200 2.110790
-1.119540 1.110142 2.117115
-1.067660 1.119603 2.111895
-1.002960 1.122840 2.105000
-0.970326 1.117303 2.110250
-0.925484 1.132763 2.116823
-0.877015 1.137974 2.116694
-0.844834 1.123650 2.106540
-1.200230 1.174600 2.100820
-1.176670 1.183505 2.103950
-1.062285 1.171668 2.115952
-0.970895 1.161250 2.114810
-0.931425 1.178500 2.100820
-0.866359 1.171785 2.112420
-0.845973 1.181247 2.129348
0.839869 1.199260 2.136770
0.984649 1.195230 2.131900
1.168740 1.199740 2.105920
1.214395 1.198030 2.131900
-1.167395 1.227700 2.121930
-1.132298 1.219213 2.118332
-1.040070 1.219520 2.103840
-0.965117 1.207310 2.103840
-0.915922 1.219520 2.108825
-0.860622 1.200960 2.149990
-0.820069 1.226539 2.133535
-0.780038 1.228790 2.135681
-0.724272 1.232245 2.135885
-0.676252 1.232164 2.134001
-0.624507 1.222368 2.132850
-0.582049 1.226704 2.135996
-0.521073 1.228980 2.135071
-0.475249 1.230476 2.136699
-0.423971 1.230669 2.142198
-0.377860 1.232759 2.140019
-0.329507 1.225228 2.134132
-0.272785 1.226888 2.134956
-0.229900 1.225613 2.140333
-0.176291 1.227950 2.140791
-0.130579 1.230548 2.141875
-0.071210 1.228633 2.131862
-0.017310 1.226624 2.131970
0.022531 1.230279 2.138311
0.078040 1.228639 2.136091
0.130680 1.229331 2.141454
0.177485 1.227503 2.138767
0.228141 1.230674 2.137511
0.283809 1.225949 2.139000
0.325386 1.226981 2.139757
0.373313 1.227334 2.137541
0.426583 1.223838 2.136120
0.454767 1.239297 2.145507
0.589038 1.225256 2.136250
0.618020 1.227027 2.127900
0.668396 1.222022 2.128943
0.725550 1.229949 2.133237
0.776187 1.226682 2.132777
0.825528 1.228999 2.127787
0.876434 1.234986 2.132350
0.917020 1.234602 2.130148
0.971648 1.232306 2.131677
1.013843 1.228307 2.132613
1.084506 1.231711 2.121974
1.127268 1.235201 2.122570
1.169510 1.225542 2.119608
1.213742 1.231998 2.136563
1.276569 1.219580 2.127128
1.322016 1.226160 2.118308
1.410440 1.242710 2.105000
1.454880 1.247110 2.142800
1.515915 1.228675 2.120420
-0.990509 1.261510 2.140950
-0.782250 1.251260 2.144890
0.813990 1.251750 2.142800
0.872219 1.251625 2.142920
0.949736 1.253940 2.143960
0.961455 1.256630 2.141410
1.021232 1.257363 2.136732
1.082877 1.258747 2.141718
1.129820 1.261710 2.135936
1.179130 1.258371 2.125903
1.226076 1.261270 2.143299
1.286417 1.261923 2.118834
1.316204 1.262196 2.124108
1.366193 1.277015 2.111200
1.429893 1.294230 2.132597
1.463548 1.266437 2.127030
1.503950 1.266150 2.107780
1.421430 1.300090 2.132830
1.578170 1.327430 2.147900
-0.917264 -1.161250 2.184550
-0.842189 -1.160985 2.179100
0.511734 -1.184610 2.184780
-0.924283 -1.121801 2.178668
-0.883653 -1.118728 2.172761
-0.828778 -1.126186 2.177990
-0.920137 -1.079608 2.172832
-0.881545 -1.074789 2.171795
-0.826110 -1.075524 2.175075
0.526139 -1.059360 2.177830
-0.953642 -1.014315 2.172375
-0.922107 -1.023632 2.169379
-0.871975 -1.032514 2.171769
-0.821461 -1.029524 2.168642
-0.916273 -0.979622 2.167182
-0.872539 -0.974799 2.164627
-0.833277 -0.970616 2.169221
-0.905424 -0.942046 2.156835
-0.865912 -0.934924 2.161203
-0.825920 -0.935231 2.165090
-0.867946 -0.861769 2.155768
-0.838893 -0.866482 2.150920
-0.922208 -0.832911 2.152660
-0.861232 -0.826523 2.154015
-0.817957 -0.823756 2.170027
-0.809534 -0.776421 2.164546
-0.810897 -0.730409 2.161862
-0.815516 -0.668935 2.166895
-0.816480 -0.628852 2.183507
-0.813481 -0.573931 2.173187
0.240364 -0.575661 2.163715
-0.814532 -0.533409 2.179654
0.216214 -0.522477 2.174711
-0.815755 -0.476239 2.167263
0.184088 -0.468859 2.177039
0.203864 -0.494034 2.167850
0.285018 -0.465493 2.163910
-0.819192 -0.424987 2.175167
-0.009186 -0.410138 2.198496
0.021625 -0.412645 2.196837
0.071235 -0.405849 2.196737
0.147075 -0.409241 2.185618
0.164622 -0.425628 2.166471
0.240730 -0.405469 2.160025
0.262044 -0.426966 2.166275
0.881828 -0.434723 2.182730
-0.817148 -0.378491 2.172244
-0.056817 -0.364478 2.199860
-0.021057 -0.373626 2.195319
0.024788 -0.375174 2.189677
0.075148 -0.374104 2.183656
0.122332 -0.374528 2.171777
0.153081 -0.389335 2.154243
0.225859 -0.373719 2.164967
-0.821680 -0.323405 2.164663
-0.062396 -0.324420 2.197394
-0.025367 -0.324376 2.189425
0.024758 -0.324096 2.185485
0.074359 -0.323977 2.178006
0.121045 -0.321877 2.158283
0.178052 -0.314273 2.158748
0.209840 -0.333198 2.171099
-0.821534 -0.271419 2.172212
-0.065273 -0.277999 2.197173
-0.025636 -0.274636 2.193093
0.024839 -0.274389 2.190918
0.076204 -0.276304 2.191588
0.124069 -0.276912 2.177898
0.166898 -0.288276 2.181305
0.873806 -0.288095 2.152780
-0.825724 -0.225608 2.177013
-0.058677 -0.248462 2.198853
-0.021862 -0.228905 2.193360
0.021154 -0.226089 2.194420
0.094729 -0.246590 2.199550
0.108727 -0.248543 2.199240
0.888260 -0.237508 2.179496
-0.828638 -0.188849 2.180781
-0.054829 -0.166160 2.182333
-0.036470 -0.189917 2.169067
0.032262 -0.184813 2.182370
0.054591 -0.163970 2.187660
-0.826685 -0.145878 2.156375
-0.062258 -0.124119 2.167012
0.071471 -0.119157 2.165204
-0.061636 -0.073489 2.169392
0.085525 -0.078795 2.169933
-0.065310 -0.029694 2.170866
0.094388 -0.018555 2.169058
-0.028077 0.037843 2.158810
0.036378 0.038087 2.166920
0.074270 0.024488 2.169012
0.485458 0.526495 2.170742
0.524854 0.523123 2.166080
0.555974 0.508121 2.177686
0.449721 0.575457 2.182000
0.477725 0.580505 2.173268
0.516461 0.574691 2.162050
0.492630 0.611896 2.176898
0.519059 0.622076 2.169267
0.518010 0.667903 2.168753
0.524655 0.721101 2.189760
-0.864528 0.944853 2.166920
-0.871039 1.021190 2.178907
-0.865261 1.080030 2.167040
-0.873684 1.126375 2.192900
-0.992218 1.169710 2.173880
-0.861636 1.184981 2.181037
-0.847926 1.169960 2.151850
-0.702292 1.198160 2.185365
-0.696677 1.198645 2.186405
0.465916 1.189487 2.165920
0.568865 1.197300 2.172950
0.723167 1.198280 2.166920
0.760033 1.197060 2.150920
0.816024 1.197303 2.178210
0.941923 1.195100 2.178980
0.956572 1.199990 2.198930
1.165810 1.194740 2.179915
1.476610 1.199260 2.166920
1.506880 1.177530 2.185940
-1.001980 1.238810 2.156950
-0.964385 1.203650 2.192900
-0.859366 1.221741 2.184098
-0.826070 1.225272 2.172811
-0.771956 1.224333 2.172452
-0.728504 1.228807 2.177649
-0.677877 1.226999 2.175684
-0.626901 1.227470 2.176690
-0.569174 1.229215 2.178047
-0.523524 1.227280 2.174640
-0.474423 1.226843 2.178235
-0.424582 1.224866 2.174767
-0.375650 1.228629 2.174861
-0.323913 1.224762 2.178189
-0.278770 1.227026 2.176404
-0.222596 1.224819 2.172583
-0.173631 1.225457 2.172727
-0.124873 1.231732 2.178066
-0.075261 1.229932 2.176591
-0.026922 1.228113 2.177419
0.026544 1.227385 2.176757
0.074626 1.226047 2.174416
0.124292 1.225664 2.176147
0.174777 1.222271 2.175715
0.223876 1.223461 2.174189
0.271657 1.226475 2.175147
0.325995 1.223676 2.174050
0.376405 1.221814 2.175548
0.421921 1.223577 2.174890
0.454743 1.229284 2.178887
0.592425 1.223479 2.174412
0.624561 1.225666 2.179084
0.671187 1.228846 2.181916
0.724269 1.228050 2.177401
0.775788 1.228431 2.176172
0.826244 1.230341 2.177294
0.872526 1.229386 2.173002
0.929960 1.229774 2.174022
0.973153 1.224381 2.181495
1.019350 1.234608 2.177731
1.073901 1.221716 2.171000
1.118301 1.233153 2.181013
1.169500 1.224676 2.190784
1.230901 1.226509 2.168256
1.262000 1.221230 2.154860
1.309530 1.235227 2.181227
1.375256 1.238440 2.179883
1.404340 1.231480 2.196840
1.475020 1.223670 2.182810
1.554730 1.209270 2.194990
-1.167395 1.270915 2.153360
-1.073270 1.257360 2.156950
-0.845484 1.260785 2.167390
-0.776356 1.262594 2.170204
-0.730198 1.257412 2.170914
-0.686971 1.250892 2.179102
-0.628681 1.256630 2.164955
-0.575538 1.258823 2.171173
-0.526209 1.258026 2.181403
-0.487320 1.250280 2.159970
-0.383678 1.258215 2.176895
-0.324229 1.257360 2.176900
-0.279549 1.256020 2.175390
-0.175249 1.258778 2.181674
-0.137821 1.257000 2.178870
-0.064333 1.266275 2.195455
0.024415 1.250280 2.167850
0.260262 1.251500 2.167850
0.320261 1.256020 2.174695
0.366955 1.253825 2.169940
0.443617 1.270550 2.196840
0.466567 1.268110 2.191970
0.642354 1.255170 2.194990
0.669576 1.261937 2.188320
0.726259 1.252560 2.177593
0.782440 1.260239 2.172027
0.814386 1.257026 2.173680
0.886327 1.259003 2.178621
0.931327 1.257316 2.168686
0.975023 1.265350 2.166494
1.023242 1.264740 2.169161
1.074239 1.263684 2.178790
1.116398 1.264779 2.182261
1.178532 1.274729 2.175737
1.215370 1.275185 2.179189
1.261806 1.283046 2.172260
1.346475 1.280435 2.157415
1.375533 1.261190 2.189653
1.431193 1.266397 2.184940
1.480023 1.267697 2.163217
1.513965 1.288615 2.180955
1.611380 1.277140 2.166810
1.215610 1.309610 2.190810
1.368450 1.301550 2.192900
1.435427 1.314493 2.166617
1.456340 1.326210 2.173880
1.534230 1.314250 2.182000
1.615040 1.304240 2.176900
1.610640 1.367720 2.187800
0.817164 -1.291790 2.235810
-0.022217 -1.205290 2.245983
0.023357 -1.204343 2.247058
-0.924955 -1.183260 2.230940
-0.879503 -1.185010 2.229860
-0.834986 -1.170450 2.200790
-0.309293 -1.167919 2.242632
-0.272591 -1.166458 2.239528
-0.239689 -1.171063 2.244625
-0.021100 -1.176354 2.239007
0.017579 -1.179560 2.242350
0.055910 -1.196080 2.246940
-0.903958 -1.108190 2.216910
-0.879599 -1.122437 2.217889
-0.832178 -1.112340 2.223865
-0.308274 -1.125565 2.243807
-0.275262 -1.123959 2.238178
-0.229782 -1.118037 2.242858
-0.199713 -1.114170 2.249960
-0.055212 -1.122628 2.248765
-0.024535 -1.124515 2.237795
0.011789 -1.122907 2.236426
-0.921484 -1.087506 2.214737
-0.877529 -1.075532 2.219632
-0.822453 -1.080520 2.219263
-0.311960 -1.090487 2.248045
-0.273666 -1.075904 2.239982
-0.231926 -1.075646 2.240947
-0.061607 -1.063183 2.248567
-0.022756 -1.074312 2.238458
0.016082 -1.077511 2.240667
-0.968657 -1.039585 2.213430
-0.924345 -1.048860 2.202870
-0.825220 -1.031650 2.218880
-0.269189 -1.026670 2.240300
-0.229799 -1.021893 2.243539
-0.175054 -1.003448 2.249380
-0.057538 -1.004180 2.248953
-0.024663 -1.025144 2.238498
0.014744 -1.024550 2.238027
-0.825221 -0.978871 2.227850
-0.265139 -0.975610 2.239800
-0.227790 -0.974293 2.241398
-0.184164 -0.970782 2.246009
-0.144780 -0.951933 2.249960
-0.054486 -0.988759 2.248218
-0.026028 -0.974036 2.237873
0.016905 -0.974014 2.238589
-0.826360 -0.923531 2.233490
-0.264651 -0.925164 2.242980
-0.225681 -0.926084 2.238906
-0.175183 -0.924505 2.244687
-0.141384 -0.914690 2.249243
-0.025746 -0.925561 2.240521
0.015966 -0.926872 2.241967
-0.823267 -0.887967 2.220970
-0.259139 -0.883556 2.247066
-0.226010 -0.875864 2.241806
-0.175071 -0.874471 2.244883
-0.134829 -0.873377 2.244632
-0.021519 -0.876214 2.242166
0.013591 -0.875992 2.244202
-0.818873 -0.831243 2.210530
-0.222222 -0.839794 2.247765
-0.178549 -0.838700 2.248519
-0.128840 -0.825432 2.245903
-0.021374 -0.830037 2.246511
0.009022 -0.833777 2.246226
-0.822860 -0.759545 2.206893
-0.123356 -0.796655 2.247637
-0.010987 -0.791406 2.249960
-0.828199 -0.728050 2.221846
-0.829425 -0.672438 2.227666
-0.115920 -0.669387 2.247983
-0.082026 -0.667554 2.246943
-0.824976 -0.620340 2.220040
-0.153061 -0.617471 2.247947
-0.122814 -0.624740 2.238969
-0.074515 -0.624565 2.236876
-0.035460 -0.615702 2.243622
-0.820582 -0.581154 2.208212
-0.158564 -0.569475 2.245716
-0.122971 -0.575747 2.234601
-0.074320 -0.574557 2.229760
-0.028548 -0.574254 2.240159
0.000977 -0.564470 2.248800
0.228278 -0.553484 2.206820
-0.158471 -0.523726 2.241092
-0.123013 -0.525358 2.226440
-0.074049 -0.524304 2.220296
-0.026896 -0.525234 2.230666
0.019506 -0.510514 2.244153
0.199469 -0.502213 2.215860
0.210090 -0.520036 2.203335
-0.826930 -0.495132 2.219810
-0.159621 -0.475223 2.239901
-0.123080 -0.475342 2.221454
-0.073943 -0.475250 2.215037
-0.026190 -0.476143 2.220627
0.025240 -0.475042 2.227692
0.066805 -0.468662 2.235908
0.166173 -0.464034 2.223115
-0.161680 -0.423997 2.239973
-0.121840 -0.424510 2.221447
-0.074582 -0.425670 2.212333
-0.028125 -0.428406 2.209651
0.028090 -0.436807 2.208059
0.075999 -0.430454 2.215183
0.123864 -0.417914 2.230243
0.156051 -0.441338 2.225682
0.258065 -0.412489 2.201370
0.898221 -0.418714 2.227920
-0.831959 -0.369152 2.226950
-0.169450 -0.373285 2.230034
-0.124811 -0.372945 2.213953
-0.075816 -0.376527 2.206366
-0.040712 -0.383541 2.203716
0.121000 -0.399280 2.208906
0.240242 -0.379894 2.201950
-0.833957 -0.328937 2.217040
-0.204515 -0.310800 2.247870
-0.175399 -0.324182 2.227753
-0.124939 -0.324547 2.209140
-0.085373 -0.325363 2.203255
0.198492 -0.302255 2.200790
0.219571 -0.329925 2.212617
-0.830348 -0.296152 2.212850
-0.204693 -0.275106 2.246897
-0.175619 -0.275035 2.229203
-0.125186 -0.274645 2.212599
-0.087466 -0.271228 2.203550
0.075930 -0.254646 2.200790
0.143315 -0.253589 2.209213
0.167154 -0.271719 2.215435
-0.200446 -0.244637 2.246825
-0.168922 -0.228701 2.241087
-0.122769 -0.224902 2.228042
-0.074575 -0.224510 2.208361
-0.036256 -0.221088 2.202457
0.047177 -0.226870 2.203286
0.075061 -0.225058 2.209727
0.119152 -0.236726 2.214008
-0.154790 -0.195990 2.248393
-0.119746 -0.194293 2.244873
-0.075961 -0.180242 2.226639
0.065160 -0.184820 2.219163
-0.065310 -0.145512 2.223865
0.079023 -0.125167 2.202567
0.097171 -0.063234 2.206820
-0.070803 -0.039064 2.202870
0.091067 0.026612 2.203800
0.486587 0.519140 2.210067
0.523742 0.509049 2.222316
0.557513 0.507950 2.222940
0.448988 0.570086 2.206820
0.477309 0.577752 2.227704
0.513346 0.589520 2.218044
0.488866 0.618427 2.217253
0.512327 0.628053 2.220570
0.551286 0.606708 2.211920
0.546648 0.668233 2.217950
0.534049 0.724876 2.215446
0.553240 0.723167 2.220970
-0.864528 0.753441 2.236970
-0.881619 1.041780 2.204960
-0.883735 1.089147 2.217177
-0.881253 1.125645 2.229430
-0.878323 1.175298 2.229084
-0.837819 1.196326 2.244254
-0.769677 1.198765 2.242420
-0.714926 1.194740 2.246885
-0.699973 1.197550 2.237900
-0.405774 1.199740 2.239990
0.094607 1.199260 2.230940
0.127445 1.199740 2.219810
0.327647 1.199990 2.229780
0.362072 1.199990 2.217950
0.548601 1.199990 2.212850
0.556902 1.199740 2.247870
0.762383 1.193825 2.234882
0.928739 1.198360 2.219267
0.991485 1.193640 2.207980
1.077574 1.194714 2.225470
1.113070 1.194375 2.213430
1.177400 1.197670 2.230360
1.217080 1.187900 2.210880
1.415080 1.194860 2.248800
1.497850 1.166300 2.209830
-0.860561 1.210716 2.230446
-0.822365 1.211097 2.222287
-0.772423 1.212887 2.221179
-0.726765 1.217195 2.228168
-0.676129 1.215958 2.226940
-0.624043 1.216359 2.226348
-0.576683 1.219593 2.225862
-0.528257 1.220933 2.223943
-0.471563 1.217691 2.223755
-0.424150 1.213161 2.229482
-0.376379 1.216970 2.225775
-0.327525 1.214731 2.221657
-0.276451 1.219284 2.226582
-0.224203 1.217271 2.224151
-0.176804 1.217424 2.226369
-0.124497 1.218331 2.218625
-0.073154 1.217561 2.228066
-0.025608 1.216324 2.225251
0.023316 1.217938 2.224929
0.076884 1.214387 2.223682
0.123314 1.213455 2.223257
0.175447 1.211932 2.226601
0.227031 1.212266 2.227641
0.275210 1.214121 2.228523
0.325090 1.213735 2.219553
0.376493 1.211032 2.225778
0.424870 1.212075 2.223508
0.464009 1.216869 2.228686
0.532034 1.207347 2.238993
0.581683 1.215115 2.228808
0.626073 1.220174 2.223370
0.674581 1.222500 2.226616
0.719151 1.222418 2.220777
0.769354 1.227339 2.224759
0.827510 1.227202 2.226022
0.876285 1.221610 2.228827
0.926112 1.227565 2.225434
0.976772 1.225778 2.232332
1.024212 1.223993 2.228416
1.074533 1.226310 2.230378
1.123314 1.223870 2.229665
1.171710 1.226845 2.226279
1.228379 1.222949 2.224302
1.280361 1.221702 2.231635
1.325651 1.223962 2.228783
1.369955 1.222530 2.235037
1.421820 1.211266 2.232100
1.477337 1.217627 2.225605
1.527634 1.221622 2.234094
1.578320 1.216930 2.243046
-0.874539 1.263547 2.212540
-0.811060 1.287640 2.206820
-0.779077 1.285200 2.204960
-0.722678 1.251260 2.205890
-0.664327 1.285200 2.212850
-0.444838 1.280310 2.213780
-0.316416 1.273480 2.204960
0.593524 1.262975 2.205310
0.620563 1.269202 2.215110
0.656087 1.267375 2.210065
0.731345 1.261910 2.223140
0.774031 1.254230 2.217527
0.829524 1.262551 2.227490
0.869655 1.258097 2.210837
0.927607 1.262356 2.229863
0.986602 1.263547 2.224832
1.026150 1.259800 2.204960
1.074822 1.273694 2.221300
1.116556 1.264354 2.225881
1.185583 1.278237 2.219229
1.220984 1.268788 2.227134
1.260050 1.258585 2.222355
1.323650 1.259925 2.204385
1.372905 1.279885 2.225662
1.415205 1.274940 2.218880
1.519333 1.279010 2.213850
1.552780 1.298140 2.217950
-0.885281 1.307900 2.235810
1.214515 1.303505 2.224910
1.313520 1.334030 2.214940
1.404705 1.336345 2.230475
1.482710 1.305700 2.225840
1.527145 1.316815 2.227345
1.590620 1.325240 2.246940
-0.770775 -1.310590 2.272920
-0.297861 -1.255410 2.296810
-0.876003 -1.213900 2.256920
-0.320078 -1.222986 2.288508
-0.281112 -1.212192 2.285446
-0.222744 -1.214878 2.285525
-0.187087 -1.206057 2.285610
-0.068296 -1.211187 2.279432
-0.032573 -1.222937 2.272882
0.016944 -1.218884 2.266242
0.069135 -1.206498 2.284555
-0.331978 -1.167378 2.272598
-0.281503 -1.194272 2.258680
-0.219663 -1.172667 2.260409
-0.176923 -1.172553 2.280002
-0.068972 -1.174480 2.272816
-0.043556 -1.171797 2.256159
0.030936 -1.174770 2.255847
0.061862 -1.176138 2.277835
-0.878689 -1.110870 2.256920
-0.325591 -1.125702 2.264741
-0.276010 -1.130895 2.251930
-0.208609 -1.131093 2.255944
-0.174810 -1.124568 2.272547
-0.144194 -1.126986 2.297692
-0.070294 -1.125543 2.276594
-0.044557 -1.136755 2.252390
0.034526 -1.130170 2.258779
0.057287 -1.126119 2.280389
-0.315017 -1.075308 2.264809
-0.297470 -1.063902 2.253900
-0.211754 -1.066632 2.253840
-0.177050 -1.075264 2.262819
-0.141606 -1.071825 2.286607
-0.072695 -1.071933 2.269688
-0.041882 -1.086835 2.252364
0.039198 -1.071846 2.259687
0.057758 -1.074513 2.285521
-0.311248 -1.024699 2.279386
-0.294565 -1.020859 2.258974
-0.208638 -1.034562 2.254364
-0.176168 -1.026536 2.257412
-0.130270 -1.021416 2.279823
-0.076423 -1.026324 2.265540
-0.047365 -1.032340 2.252507
0.039538 -1.027289 2.263698
0.056363 -1.026189 2.286937
-0.310825 -0.975689 2.286176
-0.291164 -0.974104 2.260317
-0.210553 -0.986846 2.251906
-0.163461 -0.980047 2.254456
-0.124836 -0.974721 2.270734
-0.076829 -0.973533 2.260071
0.040870 -0.974802 2.255956
0.057525 -0.975447 2.282582
-0.851344 -0.936796 2.295880
-0.308847 -0.922377 2.283933
-0.290405 -0.926193 2.261414
-0.120292 -0.927904 2.262720
-0.074429 -0.924502 2.260577
-0.047365 -0.918974 2.250890
0.039539 -0.921942 2.255513
0.057431 -0.924467 2.278952
-0.304319 -0.882174 2.294176
-0.279071 -0.872290 2.264363
-0.111340 -0.876768 2.259962
-0.075224 -0.874954 2.262607
-0.045941 -0.871568 2.253823
0.037914 -0.874142 2.257167
0.055727 -0.875118 2.278893
-0.272469 -0.826553 2.273076
-0.230009 -0.817466 2.255524
-0.174582 -0.822405 2.256279
-0.114325 -0.822047 2.255141
-0.075171 -0.825621 2.260719
-0.033105 -0.813908 2.252295
0.028307 -0.820528 2.260126
0.055942 -0.826112 2.288108
-0.262697 -0.779782 2.284055
-0.223260 -0.775896 2.267273
-0.173237 -0.774627 2.263039
-0.124301 -0.773420 2.256039
-0.075026 -0.775204 2.255532
-0.026143 -0.773499 2.254688
0.022512 -0.774861 2.265717
0.052695 -0.775068 2.292461
-0.255490 -0.732977 2.294113
-0.223750 -0.725034 2.280614
-0.173666 -0.724292 2.267285
-0.124066 -0.724899 2.255816
-0.075037 -0.726352 2.254364
-0.026467 -0.724253 2.258276
0.022594 -0.725041 2.271448
0.053468 -0.721667 2.294475
-0.219399 -0.677157 2.288371
-0.174145 -0.675359 2.268011
-0.129495 -0.682135 2.253802
-0.067789 -0.685568 2.252747
-0.026246 -0.674516 2.260686
0.021600 -0.675536 2.280046
0.050783 -0.696066 2.294375
-0.834010 -0.649434 2.254830
-0.210316 -0.633262 2.293741
-0.178739 -0.626788 2.269323
-0.145024 -0.649922 2.251810
-0.018834 -0.632023 2.259514
0.019887 -0.624987 2.282961
-0.204261 -0.573138 2.297043
-0.183086 -0.578055 2.268157
-0.007499 -0.588432 2.254861
0.022576 -0.574895 2.273300
0.052980 -0.563860 2.296000
-0.204139 -0.523057 2.294610
-0.184068 -0.527050 2.264659
-0.004883 -0.543718 2.251350
0.025162 -0.534425 2.258856
0.065853 -0.519968 2.276800
-0.204474 -0.474013 2.297015
-0.186084 -0.475579 2.266884
0.084690 -0.479741 2.265034
0.109416 -0.472126 2.285874
-0.204555 -0.420260 2.296890
-0.187959 -0.427015 2.268366
0.128063 -0.434454 2.271652
0.869167 -0.412366 2.293800
-0.843613 -0.358328 2.264880
-0.208344 -0.370301 2.280357
-0.192633 -0.380261 2.259158
-0.220155 -0.321735 2.277292
-0.194586 -0.345958 2.251810
-0.229292 -0.275171 2.274942
-0.220883 -0.225304 2.277016
-0.190034 -0.212461 2.257165
0.132002 -0.234463 2.255293
-0.214586 -0.183538 2.287958
-0.174500 -0.176734 2.271671
-0.126344 -0.170625 2.265812
-0.088565 -0.156743 2.262309
0.074872 -0.187668 2.257847
-0.114627 -0.147465 2.299830
-0.082941 -0.144013 2.275340
0.500992 0.514664 2.251810
0.488541 0.575457 2.251930
0.504980 0.587990 2.253203
0.518326 0.739036 2.250890
-0.900906 1.035680 2.288000
-0.904487 1.086783 2.282583
-0.899686 1.090120 2.280810
-0.905362 1.120822 2.297625
-0.890115 1.134164 2.255246
-0.904324 1.174190 2.280190
-0.883853 1.181311 2.275021
-0.830066 1.196625 2.271243
-0.778121 1.196896 2.276555
-0.729950 1.198226 2.275290
-0.674653 1.195809 2.286223
-0.625358 1.195160 2.280679
-0.563467 1.195729 2.285754
-0.524845 1.196912 2.294330
-0.466659 1.196020 2.293101
-0.436341 1.196324 2.292776
-0.376696 1.196998 2.285992
-0.315220 1.197279 2.290363
-0.279550 1.195698 2.289521
-0.238573 1.194271 2.290528
-0.169073 1.198337 2.287592
-0.131107 1.199093 2.293177
-0.074693 1.196764 2.287487
-0.027638 1.197074 2.286497
0.025056 1.198525 2.290026
0.073755 1.196014 2.279289
0.126626 1.194530 2.283142
0.180303 1.196029 2.285372
0.223548 1.195716 2.286055
0.278637 1.195933 2.276924
0.326480 1.194657 2.287984
0.374635 1.195980 2.276517
0.424556 1.197494 2.282199
0.476927 1.194542 2.284791
0.530534 1.197139 2.289730
0.572960 1.195738 2.281080
0.614652 1.196908 2.282574
0.696310 1.199500 2.259815
0.711496 1.197961 2.271064
0.781464 1.195702 2.282199
0.818262 1.195595 2.295885
0.889676 1.199990 2.254830
0.967528 1.197854 2.277995
1.049840 1.190470 2.299830
1.077884 1.192540 2.280751
1.171180 1.198030 2.272920
1.228406 1.195984 2.279414
1.258830 1.197550 2.257840
1.331830 1.185177 2.275936
1.380983 1.184280 2.283820
1.417520 1.193880 2.291940
1.515997 1.193720 2.266810
1.577930 1.193640 2.297970
1.614060 1.171670 2.285910
-0.903592 1.213420 2.279880
-0.873434 1.212660 2.275959
-0.818679 1.205868 2.273104
-0.775570 1.207762 2.272874
-0.729280 1.205545 2.272643
-0.677208 1.208171 2.273139
-0.623760 1.208564 2.272326
-0.575610 1.206961 2.271512
-0.523131 1.210007 2.269660
-0.477028 1.207142 2.272170
-0.424909 1.206740 2.274168
-0.372686 1.208245 2.265761
-0.324836 1.208193 2.270646
-0.271004 1.209449 2.270601
-0.223777 1.208652 2.273373
-0.174967 1.207301 2.274617
-0.124109 1.210232 2.274361
-0.076561 1.207366 2.268688
-0.027023 1.207563 2.268568
0.022342 1.208304 2.270972
0.073104 1.208429 2.268424
0.126894 1.206607 2.268996
0.172402 1.203339 2.263432
0.225415 1.207105 2.271966
0.271752 1.204123 2.270791
0.322362 1.204970 2.269523
0.372145 1.206452 2.262796
0.427913 1.205324 2.267702
0.476418 1.210773 2.267876
0.523563 1.209695 2.271395
0.578466 1.212242 2.270664
0.626913 1.212940 2.271554
0.673463 1.209355 2.272701
0.727061 1.217005 2.276151
0.775959 1.219197 2.274210
0.823327 1.218375 2.274700
0.878101 1.214115 2.276054
0.924263 1.217624 2.265992
0.970278 1.219058 2.276046
1.021793 1.226593 2.272844
1.072054 1.223558 2.268075
1.127964 1.223135 2.278024
1.173629 1.221228 2.272531
1.226610 1.226743 2.278874
1.270693 1.226290 2.276277
1.319477 1.227304 2.269603
1.374201 1.224635 2.276574
1.419671 1.223511 2.279531
1.476852 1.228650 2.287092
1.527574 1.222145 2.270330
1.579516 1.232336 2.272456
1.622607 1.237830 2.277620
1.667655 1.227210 2.288345
0.473647 1.254680 2.257840
0.830755 1.255573 2.261557
0.933134 1.267250 2.259815
0.985748 1.253335 2.272340
1.070554 1.263013 2.268149
1.130465 1.272440 2.274835
1.186865 1.272195 2.268862
1.228553 1.259944 2.258971
1.274450 1.260290 2.263990
1.319947 1.258093 2.266580
1.377672 1.265366 2.275112
1.411908 1.267518 2.290548
1.467090 1.268590 2.272920
1.528318 1.262392 2.276074
1.565970 1.269205 2.292405
1.624810 1.250280 2.296810
1.691700 1.254190 2.299830
0.667013 1.309850 2.255990
0.702658 1.319130 2.269910
1.693170 1.302040 2.288920
